# .PCD v0.7 - Point Cloud Data file format
VERSION 0.7
FIELDS x y z rgb
SIZE 4 4 4 4
TYPE F F F F
COUNT 1 1 1 1
WIDTH 1001
HEIGHT 1
VIEWPOINT 0 0 0 1 0 0 0
POINTS 1001
DATA ascii
0.057999998 -0.029999999 0.105 1.4368418e-38
0.057999998 -0.029999999 0.104 7.7602606e-39
0.057999998 -0.029999999 0.103 6.1137321e-39
0.057999998 -0.029999999 0.102 5.3783194e-39
0.057999998 -0.029999999 0.101 5.8375011e-39
0.057999998 -0.029999999 0.1 6.114088e-39
0.057999998 -0.029999999 0.098999999 5.7453055e-39
0.057999998 -0.029999999 0.097999997 5.9296967e-39
0.057999998 -0.029999999 0.097000003 5.7453055e-39
0.057999998 -0.029999999 0.096000001 5.9296967e-39
0.057999998 -0.029999999 0.094999999 5.8385787e-39
0.057999998 -0.029999999 0.093999997 5.7453041e-39
0.057999998 -0.029999999 0.093000002 5.8367808e-39
0.057999998 -0.029999999 0.092 6.2963199e-39
0.057999998 -0.029999999 0.090999998 7.8578708e-39
0.057999998 -0.029999999 0.090000004 1.031867e-38
0.057999998 -0.029999999 0.089000002 7.6352746e-39
0.057999998 -0.029999999 0.088 1.0678079e-38
0.057999998 -0.029999999 0.086999997 1.0125267e-38
0.057999998 -0.029999999 0.086000003 8.1895245e-39
0.057999998 -0.029999999 0.085000001 8.1898777e-39
0.057999998 -0.029999999 0.083999999 1.0308571e-38
0.057999998 -0.029999999 0.082999997 1.0770994e-38
0.057999998 -0.029999999 0.082000002 6.4403285e-39
0.057999998 -0.029999999 0.081 7.7299911e-39
0.057999998 -0.029999999 0.079999998 7.9151069e-39
0.057999998 -0.029999999 0.079000004 8.6537537e-39
0.057999998 -0.029999999 0.078000002 6.8094782e-39
0.057999998 -0.029999999 0.077 7.8236329e-39
0.057999998 -0.029999999 0.075999998 5.6105833e-39
0.057999998 -0.029999999 0.075000003 6.1637556e-39
0.057999998 -0.029999999 0.074000001 5.0581269e-39
0.057999998 -0.029999999 0.072999999 6.7187273e-39
0.057999998 -0.029999999 0.071999997 6.9027612e-39
0.057999998 -0.029999999 0.071000002 5.2436056e-39
0.057999998 -0.029999999 0.07 8.3760668e-39
0.057999998 -0.029999999 0.068999998 1.8975273e-38
0.057999998 -0.029999999 0.068000004 2.0265286e-38
0.057999998 -0.029999999 0.067000002 1.7868213e-38
0.057999998 -0.029999999 0.066 5.5194568e-39
0.057999998 -0.029999999 0.064999998 3.9575611e-39
0.057999998 -0.029999999 0.064000003 3.3154427e-39
0.057999998 -0.029999999 0.063000001 3.0442607e-39
0.057999998 -0.029999999 0.061999999 1.2083376e-38
0.057999998 -0.029999999 0.061000001 1.6227099e-38
0.057999998 -0.029999999 0.059999999 1.9450328e-38
0.057999998 -0.029999999 0.059 1.71487e-38
0.057999998 -0.029999999 0.057999998 1.2914203e-38
0.057999998 -0.029999999 0.057 1.3743595e-38
0.057999998 -0.029999999 0.056000002 1.7793709e-38
0.057999998 -0.029999999 0.055 1.8253254e-38
0.057999998 -0.029999999 0.054000001 1.2543624e-38
0.057999998 -0.029999999 0.052999999 1.328371e-38
0.057999998 -0.029999999 0.052000001 1.6414386e-38
0.057999998 -0.029999999 0.050999999 1.3651049e-38
0.057999998 -0.029999999 0.050000001 1.0617243e-38
0.057999998 -0.029999999 0.048999999 1.0892751e-38
0.057999998 -0.029999999 0.048 4.6144716e-39
0.057999998 -0.029999999 0.046999998 3.6846078e-39
0.057999998 -0.029999999 0.046 2.9488434e-39
0.057999998 -0.029999999 0.045000002 3.2236297e-39
0.057999998 -0.029999999 0.044 3.0392412e-39
0.057999998 -0.029999999 0.043000001 3.1310837e-39
0.057999998 -0.029999999 0.041999999 3.407672e-39
0.057999998 -0.029999999 0.041000001 3.9802762e-39
0.057999998 -0.029999999 0.039999999 1.6069586e-39
0.057999998 -0.029999999 0.039000001 1.0524696e-38
0.057999998 -0.029999999 0.037999999 1.7611135e-38
0.057999998 -0.029999999 0.037 5.9250108e-39
0.057999998 -0.029999999 0.035999998 4.6349909e-39
0.057999998 -0.029999999 0.035 2.0922221e-38
0.057999998 -0.029999999 0.034000002 2.1471407e-38
0.057999998 -0.029999999 0.033 2.1106601e-38
0.057999998 -0.029999999 0.032000002 2.1192309e-38
0.057999998 -0.029999999 0.030999999 2.1470338e-38
0.057999998 -0.029999999 0.029999999 2.1472136e-38
0.057999998 -0.029999999 0.028999999 2.1380659e-38
0.057999998 -0.029999999 0.028000001 2.1289539e-38
0.057999998 -0.029999999 0.027000001 2.1472852e-38
0.057999998 -0.029999999 0.026000001 2.1563249e-38
0.057999998 -0.029999999 0.025 2.1472849e-38
0.057999998 -0.029999999 0.024 2.1564328e-38
0.057999998 -0.029999999 0.023 1.796726e-38
0.057999998 -0.029999999 0.022 1.741373e-38
0.057999998 -0.029999999 0.021 1.9534585e-38
0.057999998 -0.029999999 0.02 2.0733129e-38
0.057999998 -0.029999999 0.018999999 1.4740413e-38
0.057999998 -0.029999999 0.017999999 2.0548381e-38
0.057999998 -0.029999999 0.017000001 2.1931316e-38
0.057999998 -0.029999999 0.016000001 2.1746925e-38
0.057999998 -0.029999999 0.015 2.1655093e-38
0.057999998 -0.029999999 0.014 2.2300463e-38
0.057999998 -0.029999999 0.013 2.1655093e-38
0.057999998 -0.029999999 0.012 2.1839842e-38
0.057999998 -0.029999999 0.011 1.9073973e-38
0.057999998 -0.029999999 0.0099999998 2.1839842e-38
0.057999998 -0.029999999 0.0089999996 2.1747646e-38
0.057999998 -0.029999999 0.0080000004 2.1563252e-38
0.057999998 -0.029999999 0.0070000002 2.1563252e-38
0.057999998 -0.029999999 0.0060000001 2.1378861e-38
0.057999998 -0.029999999 0.0049999999 2.0550179e-38
0.057999998 -0.029999999 0.0040000002 2.1654014e-38
0.057999998 -0.029999999 0.003 2.018034e-38
0.057999998 -0.029999999 0.0020000001 4.7866226e-39
0.057999998 -0.029999999 0.001 4.3274479e-39
0.059 -0.029999999 0.105 1.3075868e-38
0.059 -0.029999999 0.104 7.1138038e-39
0.059 -0.029999999 0.103 6.2055648e-39
0.059 -0.029999999 0.102 5.2868455e-39
0.059 -0.029999999 0.101 5.9296967e-39
0.059 -0.029999999 0.1 5.7453055e-39
0.059 -0.029999999 0.098999999 6.114088e-39
0.059 -0.029999999 0.097999997 5.8375011e-39
0.059 -0.029999999 0.097000003 5.6531099e-39
0.059 -0.029999999 0.096000001 5.8375011e-39
0.059 -0.029999999 0.094999999 5.4697962e-39
0.059 -0.029999999 0.093999997 5.8374997e-39
0.059 -0.029999999 0.093000002 6.2055634e-39
0.059 -0.029999999 0.092 6.4807111e-39
0.059 -0.029999999 0.090999998 7.949342e-39
0.059 -0.029999999 0.090000004 1.0131758e-38
0.059 -0.029999999 0.089000002 8.5572253e-39
0.059 -0.029999999 0.088 8.0029641e-39
0.059 -0.029999999 0.086999997 9.6639273e-39
0.059 -0.029999999 0.086000003 9.5720932e-39
0.059 -0.029999999 0.085000001 8.2817118e-39
0.059 -0.029999999 0.083999999 1.2428706e-38
0.059 -0.029999999 0.082999997 1.0494041e-38
0.059 -0.029999999 0.082000002 9.1132759e-39
0.059 -0.029999999 0.081 8.3739214e-39
0.059 -0.029999999 0.079999998 6.4388978e-39
0.059 -0.029999999 0.079000004 9.6668266e-39
0.059 -0.029999999 0.078000002 5.4265451e-39
0.059 -0.029999999 0.077 8.4690023e-39
0.059 -0.029999999 0.075999998 7.2701046e-39
0.059 -0.029999999 0.075000003 9.020381e-39
0.059 -0.029999999 0.074000001 8.5604819e-39
0.059 -0.029999999 0.072999999 5.7971311e-39
0.059 -0.029999999 0.071999997 5.7985716e-39
0.059 -0.029999999 0.071000002 6.534336e-39
0.059 -0.029999999 0.07 1.5196716e-38
0.059 -0.029999999 0.068999998 2.0174169e-38
0.059 -0.029999999 0.068000004 2.0081976e-38
0.059 -0.029999999 0.067000002 1.7777104e-38
0.059 -0.029999999 0.066 4.9677264e-39
0.059 -0.029999999 0.064999998 3.774609e-39
0.059 -0.029999999 0.064000003 3.2239632e-39
0.059 -0.029999999 0.063000001 3.412683e-39
0.059 -0.029999999 0.061999999 1.3280478e-38
0.059 -0.029999999 0.061000001 1.733308e-38
0.059 -0.029999999 0.059999999 1.9358851e-38
0.059 -0.029999999 0.059 1.5859404e-38
0.059 -0.029999999 0.057999998 1.282129e-38
0.059 -0.029999999 0.057 1.484705e-38
0.059 -0.029999999 0.056000002 1.8530548e-38
0.059 -0.029999999 0.055 1.7150146e-38
0.059 -0.029999999 0.054000001 1.2453225e-38
0.059 -0.029999999 0.052999999 1.3926913e-38
0.059 -0.029999999 0.052000001 1.7609681e-38
0.059 -0.029999999 0.050999999 1.2729446e-38
0.059 -0.029999999 0.050000001 1.0616887e-38
0.059 -0.029999999 0.048999999 1.0800202e-38
0.059 -0.029999999 0.048 7.6594414e-39
0.059 -0.029999999 0.046999998 3.3161798e-39
0.059 -0.029999999 0.046 3.6846078e-39
0.059 -0.029999999 0.045000002 3.131434e-39
0.059 -0.029999999 0.044 3.1314368e-39
0.059 -0.029999999 0.043000001 3.315475e-39
0.059 -0.029999999 0.041999999 3.3161938e-39
0.059 -0.029999999 0.041000001 3.7958849e-39
0.059 -0.029999999 0.039999999 2.1601324e-39
0.059 -0.029999999 0.039000001 8.772979e-39
0.059 -0.029999999 0.037999999 1.35538e-38
0.059 -0.029999999 0.037 5.5555052e-39
0.059 -0.029999999 0.035999998 5.3714867e-39
0.059 -0.029999999 0.035 2.0922221e-38
0.059 -0.029999999 0.034000002 2.1563603e-38
0.059 -0.029999999 0.033 2.1106598e-38
0.059 -0.029999999 0.032000002 2.0916798e-38
0.059 -0.029999999 0.030999999 2.1562533e-38
0.059 -0.029999999 0.029999999 2.137994e-38
0.059 -0.029999999 0.028999999 2.1380659e-38
0.059 -0.029999999 0.028000001 2.1289537e-38
0.059 -0.029999999 0.027000001 2.1472849e-38
0.059 -0.029999999 0.026000001 2.1655801e-38
0.059 -0.029999999 0.025 2.1472499e-38
0.059 -0.029999999 0.024 2.1656524e-38
0.059 -0.029999999 0.023 1.8428235e-38
0.059 -0.029999999 0.022 1.8612624e-38
0.059 -0.029999999 0.021 1.796726e-38
0.059 -0.029999999 0.02 2.0456542e-38
0.059 -0.029999999 0.018999999 1.6768717e-38
0.059 -0.029999999 0.017999999 2.0456186e-38
0.059 -0.029999999 0.017000001 2.1746925e-38
0.059 -0.029999999 0.016000001 2.1746925e-38
0.059 -0.029999999 0.015 2.2023876e-38
0.059 -0.029999999 0.014 2.2023876e-38
0.059 -0.029999999 0.013 2.1655093e-38
0.059 -0.029999999 0.012 2.1932035e-38
0.059 -0.029999999 0.011 1.944275e-38
0.059 -0.029999999 0.0099999998 2.1747641e-38
0.059 -0.029999999 0.0089999996 2.1563249e-38
0.059 -0.029999999 0.0080000004 2.119447e-38
0.059 -0.029999999 0.0070000002 2.1563252e-38
0.059 -0.029999999 0.0060000001 2.1471057e-38
0.059 -0.029999999 0.0049999999 2.0734924e-38
0.059 -0.029999999 0.0040000002 2.1469975e-38
0.059 -0.029999999 0.003 2.0272533e-38
0.059 -0.029999999 0.0020000001 4.8788154e-39
0.059 -0.029999999 0.001 4.2352522e-39
0.059999999 -0.029999999 0.105 1.335173e-38
0.059999999 -0.029999999 0.104 7.020169e-39
0.059999999 -0.029999999 0.103 6.0204602e-39
0.059999999 -0.029999999 0.102 5.286121e-39
0.059999999 -0.029999999 0.101 5.7453055e-39
0.059999999 -0.029999999 0.1 5.7453055e-39
0.059999999 -0.029999999 0.098999999 5.7453055e-39
0.059999999 -0.029999999 0.097999997 5.9296967e-39
0.059999999 -0.029999999 0.097000003 5.6531099e-39
0.059999999 -0.029999999 0.096000001 5.7453055e-39
0.059999999 -0.029999999 0.094999999 5.2854049e-39
0.059999999 -0.029999999 0.093999997 5.8385787e-39
0.059999999 -0.029999999 0.093000002 6.2062822e-39
0.059999999 -0.029999999 0.092 6.2055634e-39
0.059999999 -0.029999999 0.090999998 7.7663899e-39
0.059999999 -0.029999999 0.090000004 1.0316149e-38
0.059999999 -0.029999999 0.089000002 9.2962238e-39
0.059999999 -0.029999999 0.088 1.0675561e-38
0.059999999 -0.029999999 0.086999997 9.1096746e-39
0.059999999 -0.029999999 0.086000003 1.2614906e-38
0.059999999 -0.029999999 0.085000001 8.6494237e-39
0.059999999 -0.029999999 0.083999999 1.1968092e-38
0.059999999 -0.029999999 0.082999997 1.0217098e-38
0.059999999 -0.029999999 0.082000002 7.0831798e-39
0.059999999 -0.029999999 0.081 8.4675562e-39
0.059999999 -0.029999999 0.079999998 6.6250869e-39
0.059999999 -0.029999999 0.079000004 6.9942324e-39
0.059999999 -0.029999999 0.078000002 5.4269095e-39
0.059999999 -0.029999999 0.077 6.4410614e-39
0.059999999 -0.029999999 0.075999998 5.8878876e-39
0.059999999 -0.029999999 0.075000003 7.5466901e-39
0.059999999 -0.029999999 0.074000001 7.0867839e-39
0.059999999 -0.029999999 0.072999999 6.2577435e-39
0.059999999 -0.029999999 0.071999997 5.4301437e-39
0.059999999 -0.029999999 0.071000002 6.3502909e-39
0.059999999 -0.029999999 0.07 1.8145886e-38
0.059999999 -0.029999999 0.068999998 2.0084505e-38
0.059999999 -0.029999999 0.068000004 1.9806109e-38
0.059999999 -0.029999999 0.067000002 1.7961143e-38
0.059999999 -0.029999999 0.066 5.7056628e-39
0.059999999 -0.029999999 0.064999998 3.407623e-39
0.059999999 -0.029999999 0.064000003 3.2236072e-39
0.059999999 -0.029999999 0.063000001 4.6115864e-39
0.059999999 -0.029999999 0.061999999 1.3466659e-38
0.059999999 -0.029999999 0.061000001 1.8529828e-38
0.059999999 -0.029999999 0.059999999 1.9174106e-38
0.059999999 -0.029999999 0.059 1.2912384e-38
0.059999999 -0.029999999 0.057999998 1.3191511e-38
0.059999999 -0.029999999 0.057 1.659481e-38
0.059999999 -0.029999999 0.056000002 1.8621306e-38
0.059999999 -0.029999999 0.055 1.6047751e-38
0.059999999 -0.029999999 0.054000001 1.2270626e-38
0.059999999 -0.029999999 0.052999999 1.4203853e-38
0.059999999 -0.029999999 0.052000001 1.7244135e-38
0.059999999 -0.029999999 0.050999999 1.1167166e-38
0.059999999 -0.029999999 0.050000001 1.0435021e-38
0.059999999 -0.029999999 0.048999999 1.0709086e-38
0.059999999 -0.029999999 0.048 1.1072122e-38
0.059999999 -0.029999999 0.046999998 3.3176218e-39
0.059999999 -0.029999999 0.046 3.1321529e-39
0.059999999 -0.029999999 0.045000002 3.3158253e-39
0.059999999 -0.029999999 0.044 3.2236325e-39
0.059999999 -0.029999999 0.043000001 3.2232793e-39
0.059999999 -0.029999999 0.041999999 3.2232807e-39
0.059999999 -0.029999999 0.041000001 3.3377878e-39
0.059999999 -0.029999999 0.039999999 3.0799279e-39
0.059999999 -0.029999999 0.039000001 1.2371481e-38
0.059999999 -0.029999999 0.037999999 1.6137447e-38
0.059999999 -0.029999999 0.037 5.4633096e-39
0.059999999 -0.029999999 0.035999998 5.1870954e-39
0.059999999 -0.029999999 0.035 2.0830026e-38
0.059999999 -0.029999999 0.034000002 2.1840189e-38
0.059999999 -0.029999999 0.033 2.1106601e-38
0.059999999 -0.029999999 0.032000002 2.0916801e-38
0.059999999 -0.029999999 0.030999999 2.1839839e-38
0.059999999 -0.029999999 0.029999999 2.137994e-38
0.059999999 -0.029999999 0.028999999 2.1472136e-38
0.059999999 -0.029999999 0.028000001 2.1105148e-38
0.059999999 -0.029999999 0.027000001 2.1747641e-38
0.059999999 -0.029999999 0.026000001 2.1472133e-38
0.059999999 -0.029999999 0.025 2.1196991e-38
0.059999999 -0.029999999 0.024 2.156505e-38
0.059999999 -0.029999999 0.023 1.852115e-38
0.059999999 -0.029999999 0.022 1.9904081e-38
0.059999999 -0.029999999 0.021 1.8889216e-38
0.059999999 -0.029999999 0.02 2.0364346e-38
0.059999999 -0.029999999 0.018999999 1.8704825e-38
0.059999999 -0.029999999 0.017999999 2.1193755e-38
0.059999999 -0.029999999 0.017000001 2.1746929e-38
0.059999999 -0.029999999 0.016000001 2.1746929e-38
0.059999999 -0.029999999 0.015 2.2115711e-38
0.059999999 -0.029999999 0.014 2.193132e-38
0.059999999 -0.029999999 0.013 2.1839124e-38
0.059999999 -0.029999999 0.012 2.1747643e-38
0.059999999 -0.029999999 0.011 1.9258361e-38
0.059999999 -0.029999999 0.0099999998 2.1655448e-38
0.059999999 -0.029999999 0.0089999996 2.1102274e-38
0.059999999 -0.029999999 0.0080000004 2.1563249e-38
0.059999999 -0.029999999 0.0070000002 2.1563249e-38
0.059999999 -0.029999999 0.0060000001 2.1286663e-38
0.059999999 -0.029999999 0.0049999999 2.0827117e-38
0.059999999 -0.029999999 0.0040000002 2.1194107e-38
0.059999999 -0.029999999 0.003 2.0181056e-38
0.059999999 -0.029999999 0.0020000001 4.6036704e-39
0.059999999 -0.029999999 0.001 4.05194e-39
0.061000001 -0.029999999 0.105 1.4180772e-38
0.061000001 -0.029999999 0.104 7.020169e-39
0.061000001 -0.029999999 0.103 6.0204602e-39
0.061000001 -0.029999999 0.102 5.7467362e-39
0.061000001 -0.029999999 0.101 5.9296967e-39
0.061000001 -0.029999999 0.1 5.8375011e-39
0.061000001 -0.029999999 0.098999999 5.8375011e-39
0.061000001 -0.029999999 0.097999997 5.7453055e-39
0.061000001 -0.029999999 0.097000003 5.8375011e-39
0.061000001 -0.029999999 0.096000001 5.8375011e-39
0.061000001 -0.029999999 0.094999999 5.6541875e-39
0.061000001 -0.029999999 0.093999997 5.8385787e-39
0.061000001 -0.029999999 0.093000002 6.2062822e-39
0.061000001 -0.029999999 0.092 6.1130076e-39
0.061000001 -0.029999999 0.090999998 8.3181245e-39
0.061000001 -0.029999999 0.090000004 1.0407992e-38
0.061000001 -0.029999999 0.089000002 1.0770276e-38
0.061000001 -0.029999999 0.088 9.0171188e-39
0.061000001 -0.029999999 0.086999997 1.132237e-38
0.061000001 -0.029999999 0.086000003 1.0586603e-38
0.061000001 -0.029999999 0.085000001 7.4508777e-39
0.061000001 -0.029999999 0.083999999 1.1968818e-38
0.061000001 -0.029999999 0.082999997 1.067916e-38
0.061000001 -0.029999999 0.082000002 8.5590329e-39
0.061000001 -0.029999999 0.081 8.7441431e-39
0.061000001 -0.029999999 0.079999998 7.3626519e-39
0.061000001 -0.029999999 0.079000004 5.7034935e-39
0.061000001 -0.029999999 0.078000002 6.9020395e-39
0.061000001 -0.029999999 0.077 7.4552133e-39
0.061000001 -0.029999999 0.075999998 5.6113007e-39
0.061000001 -0.029999999 0.075000003 7.3630149e-39
0.061000001 -0.029999999 0.074000001 6.533257e-39
0.061000001 -0.029999999 0.072999999 6.3488658e-39
0.061000001 -0.029999999 0.071999997 6.0722789e-39
0.061000001 -0.029999999 0.071000002 1.4829759e-38
0.061000001 -0.029999999 0.07 2.0633726e-38
0.061000001 -0.029999999 0.068999998 2.0729515e-38
0.061000001 -0.029999999 0.068000004 2.0174895e-38
0.061000001 -0.029999999 0.067000002 1.8791272e-38
0.061000001 -0.029999999 0.066 5.0599402e-39
0.061000001 -0.029999999 0.064999998 3.6831308e-39
0.061000001 -0.029999999 0.064000003 3.1324934e-39
0.061000001 -0.029999999 0.063000001 6.0870696e-39
0.061000001 -0.029999999 0.061999999 1.3925828e-38
0.061000001 -0.029999999 0.061000001 1.8437985e-38
0.061000001 -0.029999999 0.059999999 1.8161401e-38
0.061000001 -0.029999999 0.059 1.3927266e-38
0.061000001 -0.029999999 0.057999998 1.3376257e-38
0.061000001 -0.029999999 0.057 1.7239102e-38
0.061000001 -0.029999999 0.056000002 1.8621672e-38
0.061000001 -0.029999999 0.055 1.3098583e-38
0.061000001 -0.029999999 0.054000001 1.2453222e-38
0.061000001 -0.029999999 0.052999999 1.6320751e-38
0.061000001 -0.029999999 0.052000001 1.7335252e-38
0.061000001 -0.029999999 0.050999999 1.1444116e-38
0.061000001 -0.029999999 0.050000001 1.0435021e-38
0.061000001 -0.029999999 0.048999999 1.0617606e-38
0.061000001 -0.029999999 0.048 1.1811126e-38
0.061000001 -0.029999999 0.046999998 3.5027319e-39
0.061000001 -0.029999999 0.046 3.1321557e-39
0.061000001 -0.029999999 0.045000002 3.3158253e-39
0.061000001 -0.029999999 0.044 3.2236325e-39
0.061000001 -0.029999999 0.043000001 3.2232793e-39
0.061000001 -0.029999999 0.041999999 3.2232807e-39
0.061000001 -0.029999999 0.041000001 3.0619198e-39
0.061000001 -0.029999999 0.039999999 2.4342012e-39
0.061000001 -0.029999999 0.039000001 9.7918014e-39
0.061000001 -0.029999999 0.037999999 1.7794799e-38
0.061000001 -0.029999999 0.037 7.6741984e-39
0.061000001 -0.029999999 0.035999998 4.8183143e-39
0.061000001 -0.029999999 0.035 2.1014417e-38
0.061000001 -0.029999999 0.034000002 2.1563603e-38
0.061000001 -0.029999999 0.033 2.1014406e-38
0.061000001 -0.029999999 0.032000002 2.1101192e-38
0.061000001 -0.029999999 0.030999999 2.1472136e-38
0.061000001 -0.029999999 0.029999999 2.1564331e-38
0.061000001 -0.029999999 0.028999999 2.1656527e-38
0.061000001 -0.029999999 0.028000001 2.1289183e-38
0.061000001 -0.029999999 0.027000001 2.1747643e-38
0.061000001 -0.029999999 0.026000001 2.1287744e-38
0.061000001 -0.029999999 0.025 2.1289186e-38
0.061000001 -0.029999999 0.024 2.1472852e-38
0.061000001 -0.029999999 0.023 1.8336758e-38
0.061000001 -0.029999999 0.022 1.8889932e-38
0.061000001 -0.029999999 0.021 1.9534585e-38
0.061000001 -0.029999999 0.02 2.1839476e-38
0.061000001 -0.029999999 0.018999999 2.027215e-38
0.061000001 -0.029999999 0.017999999 2.0824973e-38
0.061000001 -0.029999999 0.017000001 2.1839124e-38
0.061000001 -0.029999999 0.016000001 2.1839124e-38
0.061000001 -0.029999999 0.015 2.2023516e-38
0.061000001 -0.029999999 0.014 2.2115711e-38
0.061000001 -0.029999999 0.013 2.1839124e-38
0.061000001 -0.029999999 0.012 2.1563255e-38
0.061000001 -0.029999999 0.011 1.9258361e-38
0.061000001 -0.029999999 0.0099999998 2.1655448e-38
0.061000001 -0.029999999 0.0089999996 2.1378861e-38
0.061000001 -0.029999999 0.0080000004 2.1655445e-38
0.061000001 -0.029999999 0.0070000002 2.1839836e-38
0.061000001 -0.029999999 0.0060000001 2.1286663e-38
0.061000001 -0.029999999 0.0049999999 2.0551248e-38
0.061000001 -0.029999999 0.0040000002 2.1378498e-38
0.061000001 -0.029999999 0.003 1.9996668e-38
0.061000001 -0.029999999 0.0020000001 4.5118377e-39
0.061000001 -0.029999999 0.001 3.9601073e-39
0.061999999 -0.029999999 0.105 1.445592e-38
0.061999999 -0.029999999 0.104 7.9403274e-39
0.061999999 -0.029999999 0.103 6.3874449e-39
0.061999999 -0.029999999 0.102 5.9300485e-39
0.061999999 -0.029999999 0.101 5.9296967e-39
0.061999999 -0.029999999 0.1 5.9296967e-39
0.061999999 -0.029999999 0.098999999 5.9296967e-39
0.061999999 -0.029999999 0.097999997 5.7453055e-39
0.061999999 -0.029999999 0.097000003 5.9296967e-39
0.061999999 -0.029999999 0.096000001 5.8375011e-39
0.061999999 -0.029999999 0.094999999 6.2062822e-39
0.061999999 -0.029999999 0.093999997 6.021891e-39
0.061999999 -0.029999999 0.093000002 6.1130076e-39
0.061999999 -0.029999999 0.092 6.2963199e-39
0.061999999 -0.029999999 0.090999998 7.6720404e-39
0.061999999 -0.029999999 0.090000004 1.0317955e-38
0.061999999 -0.029999999 0.089000002 1.0030916e-38
0.061999999 -0.029999999 0.088 7.0820952e-39
0.061999999 -0.029999999 0.086999997 1.1968464e-38
0.061999999 -0.029999999 0.086000003 1.0584809e-38
0.061999999 -0.029999999 0.085000001 1.0402208e-38
0.061999999 -0.029999999 0.083999999 1.0494771e-38
0.061999999 -0.029999999 0.082999997 7.269013e-39
0.061999999 -0.029999999 0.082000002 1.0127079e-38
0.061999999 -0.029999999 0.081 8.282446e-39
0.061999999 -0.029999999 0.079999998 7.5463243e-39
0.061999999 -0.029999999 0.079000004 5.5187421e-39
0.061999999 -0.029999999 0.078000002 7.1786264e-39
0.061999999 -0.029999999 0.077 6.9942352e-39
0.061999999 -0.029999999 0.075999998 7.8239958e-39
0.061999999 -0.029999999 0.075000003 7.7328764e-39
0.061999999 -0.029999999 0.074000001 5.9797315e-39
0.061999999 -0.029999999 0.072999999 6.5307417e-39
0.061999999 -0.029999999 0.071999997 1.1601116e-38
0.061999999 -0.029999999 0.071000002 1.8975298e-38
0.061999999 -0.029999999 0.07 2.0818473e-38
0.061999999 -0.029999999 0.068999998 2.0726992e-38
0.061999999 -0.029999999 0.068000004 1.9806115e-38
0.061999999 -0.029999999 0.067000002 1.1050815e-38
0.061999999 -0.029999999 0.066 4.6929668e-39
0.061999999 -0.029999999 0.064999998 4.0504742e-39
0.061999999 -0.029999999 0.064000003 3.0410138e-39
0.061999999 -0.029999999 0.063000001 1.0235506e-38
0.061999999 -0.029999999 0.061999999 1.5581378e-38
0.061999999 -0.029999999 0.061000001 1.8714569e-38
0.061999999 -0.029999999 0.059999999 1.6597327e-38
0.061999999 -0.029999999 0.059 1.3098595e-38
0.061999999 -0.029999999 0.057999998 1.438824e-38
0.061999999 -0.029999999 0.057 1.8162136e-38
0.061999999 -0.029999999 0.056000002 1.6229631e-38
0.061999999 -0.029999999 0.055 1.208768e-38
0.061999999 -0.029999999 0.054000001 1.355813e-38
0.061999999 -0.029999999 0.052999999 1.7519294e-38
0.061999999 -0.029999999 0.052000001 1.3466288e-38
0.061999999 -0.029999999 0.050999999 1.107714e-38
0.061999999 -0.029999999 0.050000001 1.0341384e-38
0.061999999 -0.029999999 0.048999999 1.0525774e-38
0.061999999 -0.029999999 0.048 1.0523264e-38
0.061999999 -0.029999999 0.046999998 2.6744103e-39
0.061999999 -0.029999999 0.046 3.316547e-39
0.061999999 -0.029999999 0.045000002 3.2236297e-39
0.061999999 -0.029999999 0.044 3.2236325e-39
0.061999999 -0.029999999 0.043000001 3.315475e-39
0.061999999 -0.029999999 0.041999999 3.3154764e-39
0.061999999 -0.029999999 0.041000001 2.8775286e-39
0.061999999 -0.029999999 0.039999999 1.7902765e-39
0.061999999 -0.029999999 0.039000001 8.6887021e-39
0.061999999 -0.029999999 0.037999999 1.6412228e-38
0.061999999 -0.029999999 0.037 6.3838225e-39
0.061999999 -0.029999999 0.035999998 5.0027042e-39
0.061999999 -0.029999999 0.035 2.1014417e-38
0.061999999 -0.029999999 0.034000002 2.1287016e-38
0.061999999 -0.029999999 0.033 2.1014403e-38
0.061999999 -0.029999999 0.032000002 2.1101189e-38
0.061999999 -0.029999999 0.030999999 2.1103353e-38
0.061999999 -0.029999999 0.029999999 2.1564331e-38
0.061999999 -0.029999999 0.028999999 2.1748722e-38
0.061999999 -0.029999999 0.028000001 2.1289902e-38
0.061999999 -0.029999999 0.027000001 2.1839839e-38
0.061999999 -0.029999999 0.026000001 2.1748722e-38
0.061999999 -0.029999999 0.025 2.1472499e-38
0.061999999 -0.029999999 0.024 2.1563249e-38
0.061999999 -0.029999999 0.023 1.91658e-38
0.061999999 -0.029999999 0.022 2.1193741e-38
0.061999999 -0.029999999 0.021 2.0639135e-38
0.061999999 -0.029999999 0.02 2.1192309e-38
0.061999999 -0.029999999 0.018999999 1.6029354e-38
0.061999999 -0.029999999 0.017999999 2.1101559e-38
0.061999999 -0.029999999 0.017000001 2.1746929e-38
0.061999999 -0.029999999 0.016000001 2.1839124e-38
0.061999999 -0.029999999 0.015 2.1379585e-38
0.061999999 -0.029999999 0.014 2.2301542e-38
0.061999999 -0.029999999 0.013 2.1563977e-38
0.061999999 -0.029999999 0.012 2.1471057e-38
0.061999999 -0.029999999 0.011 1.9258361e-38
0.061999999 -0.029999999 0.0099999998 2.1655448e-38
0.061999999 -0.029999999 0.0089999996 2.1839839e-38
0.061999999 -0.029999999 0.0080000004 2.1839842e-38
0.061999999 -0.029999999 0.0070000002 2.1932038e-38
0.061999999 -0.029999999 0.0060000001 2.1378864e-38
0.061999999 -0.029999999 0.0049999999 2.1104069e-38
0.061999999 -0.029999999 0.0040000002 2.1378145e-38
0.061999999 -0.029999999 0.003 1.9259826e-38
0.061999999 -0.029999999 0.0020000001 4.6040348e-39
0.061999999 -0.029999999 0.001 4.236697e-39
0.063000001 -0.029999999 0.105 1.4823983e-38
0.063000001 -0.029999999 0.104 8.0321629e-39
0.063000001 -0.029999999 0.103 6.5711159e-39
0.063000001 -0.029999999 0.102 6.113002e-39
0.063000001 -0.029999999 0.101 5.5609142e-39
0.063000001 -0.029999999 0.1 5.9296967e-39
0.063000001 -0.029999999 0.098999999 5.9296967e-39
0.063000001 -0.029999999 0.097999997 5.9296967e-39
0.063000001 -0.029999999 0.097000003 5.6531099e-39
0.063000001 -0.029999999 0.096000001 5.6531099e-39
0.063000001 -0.029999999 0.094999999 5.560194e-39
0.063000001 -0.029999999 0.093999997 5.7442251e-39
0.063000001 -0.029999999 0.093000002 6.2963199e-39
0.063000001 -0.029999999 0.092 6.3877966e-39
0.063000001 -0.029999999 0.090999998 7.2146622e-39
0.063000001 -0.029999999 0.090000004 1.1060562e-38
0.063000001 -0.029999999 0.089000002 8.3739186e-39
0.063000001 -0.029999999 0.088 8.1906035e-39
0.063000001 -0.029999999 0.086999997 8.7416193e-39
0.063000001 -0.029999999 0.086000003 7.3572457e-39
0.063000001 -0.029999999 0.085000001 1.0494756e-38
0.063000001 -0.029999999 0.083999999 9.0203642e-39
0.063000001 -0.029999999 0.082999997 5.794613e-39
0.063000001 -0.029999999 0.082000002 8.4689995e-39
0.063000001 -0.029999999 0.081 9.480269e-39
0.063000001 -0.029999999 0.079999998 8.3746459e-39
0.063000001 -0.029999999 0.079000004 6.8998787e-39
0.063000001 -0.029999999 0.078000002 7.8239958e-39
0.063000001 -0.029999999 0.077 6.4410614e-39
0.063000001 -0.029999999 0.075999998 7.2708221e-39
0.063000001 -0.029999999 0.075000003 6.6261743e-39
0.063000001 -0.029999999 0.074000001 7.1775586e-39
0.063000001 -0.029999999 0.072999999 6.8991416e-39
0.063000001 -0.029999999 0.071999997 1.8423189e-38
0.063000001 -0.029999999 0.071000002 2.1281608e-38
0.063000001 -0.029999999 0.07 2.1006819e-38
0.063000001 -0.029999999 0.068999998 2.0729866e-38
0.063000001 -0.029999999 0.068000004 2.0634442e-38
0.063000001 -0.029999999 0.067000002 6.0740599e-39
0.063000001 -0.029999999 0.066 4.5089427e-39
0.063000001 -0.029999999 0.064999998 4.2334292e-39
0.063000001 -0.029999999 0.064000003 3.2264841e-39
0.063000001 -0.029999999 0.063000001 1.2816258e-38
0.063000001 -0.029999999 0.061999999 1.8067059e-38
0.063000001 -0.029999999 0.061000001 1.8807135e-38
0.063000001 -0.029999999 0.059999999 1.4110571e-38
0.063000001 -0.029999999 0.059 1.2731604e-38
0.063000001 -0.029999999 0.057999998 1.5493857e-38
0.063000001 -0.029999999 0.057 1.825505e-38
0.063000001 -0.029999999 0.056000002 1.3281896e-38
0.063000001 -0.029999999 0.055 1.2548654e-38
0.063000001 -0.029999999 0.054000001 1.4941053e-38
0.063000001 -0.029999999 0.052999999 1.6141047e-38
0.063000001 -0.029999999 0.052000001 1.0984947e-38
0.063000001 -0.029999999 0.050999999 1.0709802e-38
0.063000001 -0.029999999 0.050000001 1.0801279e-38
0.063000001 -0.029999999 0.048999999 1.0433579e-38
0.063000001 -0.029999999 0.048 1.0248835e-38
0.063000001 -0.029999999 0.046999998 3.1361074e-39
0.063000001 -0.029999999 0.046 3.0392412e-39
0.063000001 -0.029999999 0.045000002 3.2236297e-39
0.063000001 -0.029999999 0.044 3.2236325e-39
0.063000001 -0.029999999 0.043000001 3.1310837e-39
0.063000001 -0.029999999 0.041999999 3.1310851e-39
0.063000001 -0.029999999 0.041000001 2.9697242e-39
0.063000001 -0.029999999 0.039999999 1.2378272e-39
0.063000001 -0.029999999 0.039000001 5.7395293e-39
0.063000001 -0.029999999 0.037999999 7.1084144e-39
0.063000001 -0.029999999 0.037 5.5573157e-39
0.063000001 -0.029999999 0.035999998 5.1863724e-39
0.063000001 -0.029999999 0.035 2.0553439e-38
0.063000001 -0.029999999 0.034000002 2.1379211e-38
0.063000001 -0.029999999 0.033 2.1014406e-38
0.063000001 -0.029999999 0.032000002 2.1101192e-38
0.063000001 -0.029999999 0.030999999 2.1103353e-38
0.063000001 -0.029999999 0.029999999 2.1564331e-38
0.063000001 -0.029999999 0.028999999 2.137994e-38
0.063000001 -0.029999999 0.028000001 2.1381379e-38
0.063000001 -0.029999999 0.027000001 2.1839839e-38
0.063000001 -0.029999999 0.026000001 2.1656527e-38
0.063000001 -0.029999999 0.025 2.1563255e-38
0.063000001 -0.029999999 0.024 2.1839476e-38
0.063000001 -0.029999999 0.023 1.9349473e-38
0.063000001 -0.029999999 0.022 2.0086317e-38
0.063000001 -0.029999999 0.021 1.8333884e-38
0.063000001 -0.029999999 0.02 2.1191949e-38
0.063000001 -0.029999999 0.018999999 1.7135341e-38
0.063000001 -0.029999999 0.017999999 2.0732777e-38
0.063000001 -0.029999999 0.017000001 2.1746929e-38
0.063000001 -0.029999999 0.016000001 2.1839124e-38
0.063000001 -0.029999999 0.015 2.1288109e-38
0.063000001 -0.029999999 0.014 2.2117869e-38
0.063000001 -0.029999999 0.013 2.14725e-38
0.063000001 -0.029999999 0.012 2.1839842e-38
0.063000001 -0.029999999 0.011 1.9442753e-38
0.063000001 -0.029999999 0.0099999998 2.1932035e-38
0.063000001 -0.029999999 0.0089999996 2.1563252e-38
0.063000001 -0.029999999 0.0080000004 2.1655093e-38
0.063000001 -0.029999999 0.0070000002 2.1747289e-38
0.063000001 -0.029999999 0.0060000001 2.1194115e-38
0.063000001 -0.029999999 0.0049999999 2.0827485e-38
0.063000001 -0.029999999 0.0040000002 2.1654733e-38
0.063000001 -0.029999999 0.003 1.9443142e-38
0.063000001 -0.029999999 0.0020000001 4.0508638e-39
0.063000001 -0.029999999 0.001 3.590973e-39
0.064000003 -0.029999999 0.105 1.4733225e-38
0.064000003 -0.029999999 0.104 6.9268944e-39
0.064000003 -0.029999999 0.103 6.572555e-39
0.064000003 -0.029999999 0.102 6.0222441e-39
0.064000003 -0.029999999 0.101 6.1133691e-39
0.064000003 -0.029999999 0.1 6.2055648e-39
0.064000003 -0.029999999 0.098999999 5.652391e-39
0.064000003 -0.029999999 0.097999997 5.6541875e-39
0.064000003 -0.029999999 0.097000003 5.9289765e-39
0.064000003 -0.029999999 0.096000001 6.2052032e-39
0.064000003 -0.029999999 0.094999999 6.0211721e-39
0.064000003 -0.029999999 0.093999997 6.2973989e-39
0.064000003 -0.029999999 0.093000002 7.2179132e-39
0.064000003 -0.029999999 0.092 7.1242757e-39
0.064000003 -0.029999999 0.090999998 6.6636492e-39
0.064000003 -0.029999999 0.090000004 9.8695861e-39
0.064000003 -0.029999999 0.089000002 7.6359906e-39
0.064000003 -0.029999999 0.088 8.8341779e-39
0.064000003 -0.029999999 0.086999997 1.0678076e-38
0.064000003 -0.029999999 0.086000003 1.0492965e-38
0.064000003 -0.029999999 0.085000001 1.0770272e-38
0.064000003 -0.029999999 0.083999999 7.8207448e-39
0.064000003 -0.029999999 0.082999997 6.0693992e-39
0.064000003 -0.029999999 0.082000002 8.9281798e-39
0.064000003 -0.029999999 0.081 1.0585895e-38
0.064000003 -0.029999999 0.079999998 9.5731849e-39
0.064000003 -0.029999999 0.079000004 1.0403666e-38
0.064000003 -0.029999999 0.078000002 6.9917198e-39
0.064000003 -0.029999999 0.077 7.8229168e-39
0.064000003 -0.029999999 0.075999998 6.6254526e-39
0.064000003 -0.029999999 0.075000003 6.9949624e-39
0.064000003 -0.029999999 0.074000001 5.1499624e-39
0.064000003 -0.029999999 0.072999999 1.584317e-38
0.064000003 -0.029999999 0.071999997 2.0637319e-38
0.064000003 -0.029999999 0.071000002 2.1282688e-38
0.064000003 -0.029999999 0.07 2.1649673e-38
0.064000003 -0.029999999 0.068999998 2.0542247e-38
0.064000003 -0.029999999 0.068000004 1.8886328e-38
0.064000003 -0.029999999 0.067000002 4.7844225e-39
0.064000003 -0.029999999 0.066 4.4167414e-39
0.064000003 -0.029999999 0.064999998 3.68134e-39
0.064000003 -0.029999999 0.064000003 4.3339135e-39
0.064000003 -0.029999999 0.063000001 1.4477931e-38
0.064000003 -0.029999999 0.061999999 1.8530548e-38
0.064000003 -0.029999999 0.061000001 1.5950881e-38
0.064000003 -0.029999999 0.059999999 1.3557764e-38
0.064000003 -0.029999999 0.059 1.4204573e-38
0.064000003 -0.029999999 0.057999998 1.6873556e-38
0.064000003 -0.029999999 0.057 1.5676811e-38
0.064000003 -0.029999999 0.056000002 1.2916361e-38
0.064000003 -0.029999999 0.055 1.3562809e-38
0.064000003 -0.029999999 0.054000001 1.5863018e-38
0.064000003 -0.029999999 0.052999999 1.1809661e-38
0.064000003 -0.029999999 0.052000001 1.0617971e-38
0.064000003 -0.029999999 0.050999999 1.0709447e-38
0.064000003 -0.029999999 0.050000001 1.0709447e-38
0.064000003 -0.029999999 0.048999999 1.0709447e-38
0.064000003 -0.029999999 0.048 1.0984231e-38
0.064000003 -0.029999999 0.046999998 3.4159327e-39
0.064000003 -0.029999999 0.046 3.131434e-39
0.064000003 -0.029999999 0.045000002 3.3161826e-39
0.064000003 -0.029999999 0.044 3.223987e-39
0.064000003 -0.029999999 0.043000001 3.2236325e-39
0.064000003 -0.029999999 0.041999999 3.5913388e-39
0.064000003 -0.029999999 0.041000001 2.6924156e-39
0.064000003 -0.029999999 0.039999999 7.775637e-40
0.064000003 -0.029999999 0.039000001 1.0439703e-38
0.064000003 -0.029999999 0.037999999 1.5771915e-38
0.064000003 -0.029999999 0.037 6.1094133e-39
0.064000003 -0.029999999 0.035999998 5.094897e-39
0.064000003 -0.029999999 0.035 2.0921861e-38
0.064000003 -0.029999999 0.034000002 2.1195899e-38
0.064000003 -0.029999999 0.033 2.1839487e-38
0.064000003 -0.029999999 0.032000002 2.0827479e-38
0.064000003 -0.029999999 0.030999999 2.1287742e-38
0.064000003 -0.029999999 0.029999999 2.1564328e-38
0.064000003 -0.029999999 0.028999999 2.1564328e-38
0.064000003 -0.029999999 0.028000001 2.1472854e-38
0.064000003 -0.029999999 0.027000001 2.1564331e-38
0.064000003 -0.029999999 0.026000001 2.2023512e-38
0.064000003 -0.029999999 0.025 2.1472489e-38
0.064000003 -0.029999999 0.024 2.1747278e-38
0.064000003 -0.029999999 0.023 1.9349473e-38
0.064000003 -0.029999999 0.022 2.0178513e-38
0.064000003 -0.029999999 0.021 1.9532425e-38
0.064000003 -0.029999999 0.02 2.2943663e-38
0.064000003 -0.029999999 0.018999999 1.7411925e-38
0.064000003 -0.029999999 0.017999999 1.7875064e-38
0.064000003 -0.029999999 0.017000001 2.1839123e-38
0.064000003 -0.029999999 0.016000001 2.1839124e-38
0.064000003 -0.029999999 0.015 2.1470702e-38
0.064000003 -0.029999999 0.014 2.2392658e-38
0.064000003 -0.029999999 0.013 2.1747289e-38
0.064000003 -0.029999999 0.012 2.1563252e-38
0.064000003 -0.029999999 0.011 1.9166166e-38
0.064000003 -0.029999999 0.0099999998 2.1378861e-38
0.064000003 -0.029999999 0.0089999996 2.1932035e-38
0.064000003 -0.029999999 0.0080000004 2.1839836e-38
0.064000003 -0.029999999 0.0070000002 2.1563255e-38
0.064000003 -0.029999999 0.0060000001 2.1194115e-38
0.064000003 -0.029999999 0.0049999999 2.1194467e-38
0.064000003 -0.029999999 0.0040000002 2.1562536e-38
0.064000003 -0.029999999 0.003 1.9260546e-38
0.064000003 -0.029999999 0.0020000001 4.4178484e-39
0.064000003 -0.029999999 0.001 3.958315e-39
0.064999998 -0.029999999 0.105 1.464175e-38
0.064999998 -0.029999999 0.104 6.8357777e-39
0.064999998 -0.029999999 0.103 6.4814384e-39
0.064999998 -0.029999999 0.102 5.9311275e-39
0.064999998 -0.029999999 0.101 6.1133691e-39
0.064999998 -0.029999999 0.1 6.2977604e-39
0.064999998 -0.029999999 0.098999999 6.1133691e-39
0.064999998 -0.029999999 0.097999997 5.4697962e-39
0.064999998 -0.029999999 0.097000003 6.1133677e-39
0.064999998 -0.029999999 0.096000001 6.1130076e-39
0.064999998 -0.029999999 0.094999999 6.297759e-39
0.064999998 -0.029999999 0.093999997 7.0335192e-39
0.064999998 -0.029999999 0.093000002 8.0433467e-39
0.064999998 -0.029999999 0.092 8.9617002e-39
0.064999998 -0.029999999 0.090999998 7.3068663e-39
0.064999998 -0.029999999 0.090000004 9.8771573e-39
0.064999998 -0.029999999 0.089000002 8.9306923e-39
0.064999998 -0.029999999 0.088 8.4657485e-39
0.064999998 -0.029999999 0.086999997 1.4089668e-38
0.064999998 -0.029999999 0.086000003 1.1138686e-38
0.064999998 -0.029999999 0.085000001 1.1598957e-38
0.064999998 -0.029999999 0.083999999 1.0217103e-38
0.064999998 -0.029999999 0.082999997 7.820742e-39
0.064999998 -0.029999999 0.082000002 1.0217831e-38
0.064999998 -0.029999999 0.081 8.0966128e-39
0.064999998 -0.029999999 0.079999998 7.2682941e-39
0.064999998 -0.029999999 0.079000004 9.2973182e-39
0.064999998 -0.029999999 0.078000002 7.4555664e-39
0.064999998 -0.029999999 0.077 6.7172965e-39
0.064999998 -0.029999999 0.075999998 6.624738e-39
0.064999998 -0.029999999 0.075000003 7.8221868e-39
0.064999998 -0.029999999 0.074000001 1.3447164e-38
0.064999998 -0.029999999 0.072999999 2.0084857e-38
0.064999998 -0.029999999 0.071999997 2.1652536e-38
0.064999998 -0.029999999 0.071000002 2.1190853e-38
0.064999998 -0.029999999 0.07 2.1190493e-38
0.064999998 -0.029999999 0.068999998 2.0267458e-38
0.064999998 -0.029999999 0.068000004 1.1695458e-38
0.064999998 -0.029999999 0.067000002 4.9702585e-39
0.064999998 -0.029999999 0.066 4.3263465e-39
0.064999998 -0.029999999 0.064999998 3.8682634e-39
0.064999998 -0.029999999 0.064000003 6.8221137e-39
0.064999998 -0.029999999 0.063000001 1.5950531e-38
0.064999998 -0.029999999 0.061999999 1.7701865e-38
0.064999998 -0.029999999 0.061000001 1.3834351e-38
0.064999998 -0.029999999 0.059999999 1.2822007e-38
0.064999998 -0.029999999 0.059 1.4848506e-38
0.064999998 -0.029999999 0.057999998 1.779696e-38
0.064999998 -0.029999999 0.057 1.319079e-38
0.064999998 -0.029999999 0.056000002 1.2088769e-38
0.064999998 -0.029999999 0.055 1.3562455e-38
0.064999998 -0.029999999 0.054000001 1.2270642e-38
0.064999998 -0.029999999 0.052999999 1.0892748e-38
0.064999998 -0.029999999 0.052000001 1.0527569e-38
0.064999998 -0.029999999 0.050999999 1.0617252e-38
0.064999998 -0.029999999 0.050000001 1.0893839e-38
0.064999998 -0.029999999 0.048999999 1.0893839e-38
0.064999998 -0.029999999 0.048 1.1353376e-38
0.064999998 -0.029999999 0.046999998 6.0910479e-39
0.064999998 -0.029999999 0.046 3.5927779e-39
0.064999998 -0.029999999 0.045000002 3.2236297e-39
0.064999998 -0.029999999 0.044 3.5002194e-39
0.064999998 -0.029999999 0.043000001 2.9466924e-39
0.064999998 -0.029999999 0.041999999 3.2222017e-39
0.064999998 -0.029999999 0.041000001 2.7846113e-39
0.064999998 -0.029999999 0.039999999 2.6196714e-39
0.064999998 -0.029999999 0.039000001 1.0159509e-38
0.064999998 -0.029999999 0.037999999 1.5212614e-38
0.064999998 -0.029999999 0.037 6.7529764e-39
0.064999998 -0.029999999 0.035999998 4.083259e-39
0.064999998 -0.029999999 0.035 2.1289562e-38
0.064999998 -0.029999999 0.034000002 2.1195175e-38
0.064999998 -0.029999999 0.033 2.1747289e-38
0.064999998 -0.029999999 0.032000002 2.0274662e-38
0.064999998 -0.029999999 0.030999999 2.1287742e-38
0.064999998 -0.029999999 0.029999999 2.1564328e-38
0.064999998 -0.029999999 0.028999999 2.1564328e-38
0.064999998 -0.029999999 0.028000001 2.156505e-38
0.064999998 -0.029999999 0.027000001 2.1840918e-38
0.064999998 -0.029999999 0.026000001 2.1931316e-38
0.064999998 -0.029999999 0.025 2.1288097e-38
0.064999998 -0.029999999 0.024 2.1839473e-38
0.064999998 -0.029999999 0.023 1.8427516e-38
0.064999998 -0.029999999 0.022 2.0639491e-38
0.064999998 -0.029999999 0.021 2.0824957e-38
0.064999998 -0.029999999 0.02 2.0917153e-38
0.064999998 -0.029999999 0.018999999 2.0456175e-38
0.064999998 -0.029999999 0.017999999 2.0825319e-38
0.064999998 -0.029999999 0.017000001 2.1931672e-38
0.064999998 -0.029999999 0.016000001 2.1931316e-38
0.064999998 -0.029999999 0.015 2.1471057e-38
0.064999998 -0.029999999 0.014 2.26696e-38
0.064999998 -0.029999999 0.013 2.1655448e-38
0.064999998 -0.029999999 0.012 2.1378861e-38
0.064999998 -0.029999999 0.011 1.9258361e-38
0.064999998 -0.029999999 0.0099999998 2.1286665e-38
0.064999998 -0.029999999 0.0089999996 2.1932035e-38
0.064999998 -0.029999999 0.0080000004 2.1839836e-38
0.064999998 -0.029999999 0.0070000002 2.1655451e-38
0.064999998 -0.029999999 0.0060000001 2.110192e-38
0.064999998 -0.029999999 0.0049999999 2.1286665e-38
0.064999998 -0.029999999 0.0040000002 2.1285951e-38
0.064999998 -0.029999999 0.003 1.9352023e-38
0.064999998 -0.029999999 0.0020000001 4.4178484e-39
0.064999998 -0.029999999 0.001 4.1427063e-39
0.066 -0.029999999 0.105 1.4090374e-38
0.066 -0.029999999 0.104 7.0208879e-39
0.066 -0.029999999 0.103 6.113016e-39
0.066 -0.029999999 0.102 5.3793928e-39
0.066 -0.029999999 0.101 6.0211735e-39
0.066 -0.029999999 0.1 6.0211735e-39
0.066 -0.029999999 0.098999999 6.0211735e-39
0.066 -0.029999999 0.097999997 5.5619918e-39
0.066 -0.029999999 0.097000003 6.0211721e-39
0.066 -0.029999999 0.096000001 6.1130076e-39
0.066 -0.029999999 0.094999999 5.9293324e-39
0.066 -0.029999999 0.093999997 7.6774438e-39
0.066 -0.029999999 0.093000002 8.4085237e-39
0.066 -0.029999999 0.092 1.1815435e-38
0.066 -0.029999999 0.090999998 8.5007193e-39
0.066 -0.029999999 0.090000004 8.1322885e-39
0.066 -0.029999999 0.089000002 1.0321202e-38
0.066 -0.029999999 0.088 8.557591e-39
0.066 -0.029999999 0.086999997 1.0954663e-38
0.066 -0.029999999 0.086000003 1.1507117e-38
0.066 -0.029999999 0.085000001 1.1506046e-38
0.066 -0.029999999 0.083999999 1.0677356e-38
0.066 -0.029999999 0.082999997 1.2153562e-38
0.066 -0.029999999 0.082000002 1.0494052e-38
0.066 -0.029999999 0.081 6.805874e-39
0.066 -0.029999999 0.079999998 8.4668373e-39
0.066 -0.029999999 0.079000004 6.9924275e-39
0.066 -0.029999999 0.078000002 6.3481371e-39
0.066 -0.029999999 0.077 7.5448936e-39
0.066 -0.029999999 0.075999998 7.3594037e-39
0.066 -0.029999999 0.075000003 1.1047567e-38
0.066 -0.029999999 0.074000001 1.9807202e-38
0.066 -0.029999999 0.072999999 2.1007169e-38
0.066 -0.029999999 0.071999997 2.1836944e-38
0.066 -0.029999999 0.071000002 2.0731673e-38
0.066 -0.029999999 0.07 1.999231e-38
0.066 -0.029999999 0.068999998 2.0268537e-38
0.066 -0.029999999 0.068000004 5.6105748e-39
0.066 -0.029999999 0.067000002 4.4174491e-39
0.066 -0.029999999 0.066 4.8798804e-39
0.066 -0.029999999 0.064999998 3.0431718e-39
0.066 -0.029999999 0.064000003 1.1803903e-38
0.066 -0.029999999 0.063000001 1.6505139e-38
0.066 -0.029999999 0.061999999 1.6783158e-38
0.066 -0.029999999 0.061000001 1.2916001e-38
0.066 -0.029999999 0.059999999 1.282345e-38
0.066 -0.029999999 0.059 1.6230722e-38
0.066 -0.029999999 0.057999998 1.3836509e-38
0.066 -0.029999999 0.057 1.107714e-38
0.066 -0.029999999 0.056000002 1.1263692e-38
0.066 -0.029999999 0.055 1.1723943e-38
0.066 -0.029999999 0.054000001 1.1170061e-38
0.066 -0.029999999 0.052999999 1.0893477e-38
0.066 -0.029999999 0.052000001 1.0617243e-38
0.066 -0.029999999 0.050999999 1.0709447e-38
0.066 -0.029999999 0.050000001 1.0893839e-38
0.066 -0.029999999 0.048999999 1.0893839e-38
0.066 -0.029999999 0.048 1.0340305e-38
0.066 -0.029999999 0.046999998 7.7509321e-39
0.066 -0.029999999 0.046 2.7648179e-39
0.066 -0.029999999 0.045000002 3.1314396e-39
0.066 -0.029999999 0.044 3.3158309e-39
0.066 -0.029999999 0.043000001 3.1310851e-39
0.066 -0.029999999 0.041999999 3.3144002e-39
0.066 -0.029999999 0.041000001 3.0611982e-39
0.066 -0.029999999 0.039999999 1.3282081e-39
0.066 -0.029999999 0.039000001 1.1171493e-38
0.066 -0.029999999 0.037999999 1.7886995e-38
0.066 -0.029999999 0.037 5.3682357e-39
0.066 -0.029999999 0.035999998 4.9094197e-39
0.066 -0.029999999 0.035 2.1289916e-38
0.066 -0.029999999 0.034000002 2.1379563e-38
0.066 -0.029999999 0.033 2.1747646e-38
0.066 -0.029999999 0.032000002 2.027466e-38
0.066 -0.029999999 0.030999999 2.1195546e-38
0.066 -0.029999999 0.029999999 2.1564328e-38
0.066 -0.029999999 0.028999999 2.1564328e-38
0.066 -0.029999999 0.028000001 2.1472854e-38
0.066 -0.029999999 0.027000001 2.1472136e-38
0.066 -0.029999999 0.026000001 2.1654729e-38
0.066 -0.029999999 0.025 2.1472489e-38
0.066 -0.029999999 0.024 2.1747278e-38
0.066 -0.029999999 0.023 1.8335321e-38
0.066 -0.029999999 0.022 2.0455097e-38
0.066 -0.029999999 0.021 2.110226e-38
0.066 -0.029999999 0.02 2.1010064e-38
0.066 -0.029999999 0.018999999 1.7691022e-38
0.066 -0.029999999 0.017999999 2.0917872e-38
0.066 -0.029999999 0.017000001 2.1839473e-38
0.066 -0.029999999 0.016000001 2.1839476e-38
0.066 -0.029999999 0.015 2.1563249e-38
0.066 -0.029999999 0.014 2.239301e-38
0.066 -0.029999999 0.013 2.1655445e-38
0.066 -0.029999999 0.012 2.1655448e-38
0.066 -0.029999999 0.011 1.8981775e-38
0.066 -0.029999999 0.0099999998 2.1286665e-38
0.066 -0.029999999 0.0089999996 2.1932035e-38
0.066 -0.029999999 0.0080000004 2.1747641e-38
0.066 -0.029999999 0.0070000002 2.1471059e-38
0.066 -0.029999999 0.0060000001 2.1194115e-38
0.066 -0.029999999 0.0049999999 2.1286665e-38
0.066 -0.029999999 0.0040000002 2.1285951e-38
0.066 -0.029999999 0.003 1.9167632e-38
0.066 -0.029999999 0.0020000001 4.5100441e-39
0.066 -0.029999999 0.001 3.8661194e-39
0.067000002 -0.029999999 0.105 1.3450037e-38
0.067000002 -0.029999999 0.104 6.742136e-39
0.067000002 -0.029999999 0.103 6.0218924e-39
0.067000002 -0.029999999 0.102 6.1133719e-39
0.067000002 -0.029999999 0.101 5.9289765e-39
0.067000002 -0.029999999 0.1 6.0211721e-39
0.067000002 -0.029999999 0.098999999 6.2055634e-39
0.067000002 -0.029999999 0.097999997 6.0211721e-39
0.067000002 -0.029999999 0.097000003 5.8367808e-39
0.067000002 -0.029999999 0.096000001 5.9289765e-39
0.067000002 -0.029999999 0.094999999 6.6650996e-39
0.067000002 -0.029999999 0.093999997 8.505764e-39
0.067000002 -0.029999999 0.093000002 8.776939e-39
0.067000002 -0.029999999 0.092 1.4118156e-38
0.067000002 -0.029999999 0.090999998 1.0432849e-38
0.067000002 -0.029999999 0.090000004 7.0324149e-39
0.067000002 -0.029999999 0.089000002 1.0979535e-38
0.067000002 -0.029999999 0.088 9.2126784e-39
0.067000002 -0.029999999 0.086999997 8.9238456e-39
0.067000002 -0.029999999 0.086000003 8.9267266e-39
0.067000002 -0.029999999 0.085000001 9.5731849e-39
0.067000002 -0.029999999 0.083999999 1.2246485e-38
0.067000002 -0.029999999 0.082999997 1.0401846e-38
0.067000002 -0.029999999 0.082000002 8.7408934e-39
0.067000002 -0.029999999 0.081 7.5448852e-39
0.067000002 -0.029999999 0.079999998 7.4526896e-39
0.067000002 -0.029999999 0.079000004 7.7292737e-39
0.067000002 -0.029999999 0.078000002 9.2958777e-39
0.067000002 -0.029999999 0.077 8.6505027e-39
0.067000002 -0.029999999 0.075999998 1.2708875e-38
0.067000002 -0.029999999 0.075000003 1.9347295e-38
0.067000002 -0.029999999 0.074000001 2.0822422e-38
0.067000002 -0.029999999 0.072999999 2.1467792e-38
0.067000002 -0.029999999 0.071999997 2.1375602e-38
0.067000002 -0.029999999 0.071000002 2.0453288e-38
0.067000002 -0.029999999 0.07 2.0451482e-38
0.067000002 -0.029999999 0.068999998 1.9992698e-38
0.067000002 -0.029999999 0.068000004 5.337948e-39
0.067000002 -0.029999999 0.067000002 4.8777084e-39
0.067000002 -0.029999999 0.066 4.0515616e-39
0.067000002 -0.029999999 0.064999998 3.8754535e-39
0.067000002 -0.029999999 0.064000003 1.4201339e-38
0.067000002 -0.029999999 0.063000001 1.6692054e-38
0.067000002 -0.029999999 0.061999999 1.2729457e-38
0.067000002 -0.029999999 0.061000001 1.2638695e-38
0.067000002 -0.029999999 0.059999999 1.3745042e-38
0.067000002 -0.029999999 0.059 1.5035781e-38
0.067000002 -0.029999999 0.057999998 1.1536314e-38
0.067000002 -0.029999999 0.057 1.0250263e-38
0.067000002 -0.029999999 0.056000002 1.0158423e-38
0.067000002 -0.029999999 0.055 9.8821992e-39
0.067000002 -0.029999999 0.054000001 1.034211e-38
0.067000002 -0.029999999 0.052999999 1.0616892e-38
0.067000002 -0.029999999 0.052000001 1.0892035e-38
0.067000002 -0.029999999 0.050999999 1.0617252e-38
0.067000002 -0.029999999 0.050000001 1.0801643e-38
