# .PCD v0.7 - Point Cloud Data file format
VERSION 0.7
FIELDS x y z descriptor multiplicity pointId
SIZE 4 4 4 4 4 4
TYPE F F F F I I
COUNT 1 1 1 128 1 1
WIDTH 133
HEIGHT 1
VIEWPOINT 0 0 0 1 0 0 0
POINTS 133
DATA ascii
0.073875777 0 0.062025379 60 1 2 0 33 39 46 70 90 30 0 0 96 64 14 2 124 69 0 0 29 12 0 0 4 1 0 0 124 66 0 0 124 14 0 0 56 27 0 6 51 16 0 0 124 123 6 10 124 53 0 0 18 16 4 32 17 2 0 0 124 59 0 1 124 12 0 0 13 18 3 15 14 0 0 0 43 124 67 29 69 0 0 0 6 17 52 113 7 0 0 0 124 58 0 5 48 0 0 0 0 3 21 52 3 0 0 0 0 7 14 3 0 0 1 2 1 0 10 7 0 0 2 12 70 18 0 0 1 0
0.073875777 0 0.062025379 123 0 0 1 1 0 0 50 31 0 8 5 0 0 0 15 0 6 12 1 0 0 2 0 0 1 2 2 0 0 2 0 123 0 0 9 6 0 0 68 21 12 61 123 39 0 0 5 68 99 76 26 2 0 0 0 12 12 11 68 28 0 0 0 123 0 0 16 49 0 0 44 46 6 8 117 123 0 0 9 123 26 8 21 16 0 0 40 31 2 1 115 117 0 0 6 68 0 0 37 61 0 0 22 57 9 1 68 123 0 0 18 123 26 21 39 20 0 0 49 27 1 5 111 89 0 0 10 1 0
0.09160424 0 0.068698861 0 0 0 0 11 95 8 0 20 1 6 2 108 142 2 5 119 8 9 0 12 13 42 67 9 9 18 0 0 48 118 11 0 0 4 22 22 7 0 0 36 1 1 70 147 36 0 0 147 6 0 6 34 4 2 7 50 1 0 0 0 10 27 4 0 0 53 146 22 2 0 0 47 3 20 147 85 0 0 0 147 7 0 9 10 0 0 1 58 0 0 0 0 0 0 0 0 0 8 37 66 91 0 0 43 1 3 21 50 24 0 1 147 4 0 0 3 0 0 5 43 0 0 0 0 0 0 1 1 0
0.0079700314 0 0.026307616 16 14 14 7 9 14 9 14 103 112 5 6 17 39 5 2 150 129 0 0 1 0 0 0 5 2 0 0 9 2 0 0 39 19 9 11 5 8 14 46 107 24 10 16 63 45 4 7 150 79 0 1 5 2 0 6 27 5 0 3 8 0 0 0 29 26 31 46 28 7 8 31 94 10 42 48 25 2 1 90 150 9 0 2 2 0 0 138 26 0 0 3 9 1 0 6 15 12 48 46 7 1 9 60 96 1 4 9 3 0 1 150 85 0 0 1 4 0 0 150 2 0 0 3 9 0 0 2 1 0
0.090753742 0 0.0094765928 19 1 1 21 33 5 0 1 148 19 0 8 15 0 0 5 47 9 0 52 148 5 0 0 31 0 0 9 48 1 0 14 23 1 1 8 26 20 1 3 148 20 0 6 20 2 0 9 50 8 0 48 148 11 0 1 71 0 0 7 49 3 0 13 21 0 4 8 23 11 0 10 148 3 0 3 27 13 5 88 30 1 0 23 148 61 4 15 70 0 0 3 32 11 0 10 26 0 5 9 4 0 9 83 112 0 4 39 30 9 6 148 4 0 0 99 148 31 5 15 24 2 0 7 24 3 0 2 1 0
0.13127235 0 0.079009846 68 22 10 12 26 17 2 51 41 4 2 41 106 104 3 10 128 14 0 3 47 18 1 30 86 10 0 0 48 11 0 3 65 51 8 3 18 6 12 25 38 15 3 37 128 45 7 5 128 42 0 8 69 13 1 12 43 27 18 9 77 11 0 1 52 74 31 11 12 5 7 10 37 31 16 28 128 83 3 14 128 74 2 10 61 35 2 18 16 13 6 8 92 58 0 0 49 25 6 5 6 7 30 35 13 10 5 75 98 27 20 20 78 128 4 25 36 25 20 3 39 58 0 2 49 38 0 2 1 0
0.14594094 0 0.087989427 0 0 0 0 4 14 35 0 46 20 0 1 5 12 3 2 135 38 0 1 6 3 3 41 17 9 24 18 27 18 11 15 0 0 0 0 1 122 135 5 58 3 0 0 15 135 23 9 135 23 2 0 7 18 4 38 19 6 10 9 33 38 48 21 0 0 0 0 19 76 28 5 16 8 0 1 135 135 3 1 135 135 25 2 47 16 1 17 29 48 53 14 15 8 4 20 0 3 4 1 46 14 3 3 1 0 0 0 135 28 0 0 135 30 1 3 87 7 0 27 55 21 31 43 34 15 6 27 1 0
0.10998826 0 0.075929508 121 0 0 0 0 1 7 24 121 0 0 13 80 0 0 18 121 2 0 5 20 0 0 22 14 0 15 47 7 0 0 3 113 2 0 0 12 35 31 49 115 7 0 12 121 0 0 18 121 27 0 7 33 0 0 3 15 2 7 87 121 0 0 0 79 29 4 33 70 16 5 9 92 23 1 8 106 9 1 10 121 4 0 1 36 4 0 30 15 0 0 7 121 31 1 3 95 4 1 28 61 10 1 16 97 3 0 0 66 18 1 18 121 10 0 0 16 7 0 10 11 0 0 0 48 80 13 1 1 0
0.040397156 0 0.049163453 19 6 14 12 2 0 3 21 33 41 7 9 2 0 3 43 12 39 19 37 108 9 0 1 120 8 0 11 93 11 0 2 35 15 19 11 1 8 7 38 36 14 19 77 5 1 2 24 109 20 7 18 70 55 5 17 120 32 0 0 113 76 1 2 38 34 42 9 1 1 0 3 55 12 12 18 2 3 21 48 117 4 0 2 45 51 30 120 36 26 0 0 120 120 7 4 45 10 1 1 1 1 28 19 97 16 10 0 0 0 2 65 120 3 1 0 17 69 24 120 2 1 0 0 81 120 12 9 1 0
0.077360533 0 0.070914477 103 13 0 1 58 29 6 13 66 9 0 0 134 63 0 1 134 37 0 0 21 12 0 1 13 2 0 0 101 103 4 2 134 22 0 0 56 22 0 0 52 5 0 0 134 110 10 8 134 30 0 0 15 16 9 35 31 2 0 0 17 77 28 5 134 23 0 0 25 19 1 0 25 2 0 0 49 134 81 23 75 0 0 0 2 18 75 121 14 0 0 0 0 2 4 9 118 53 0 0 26 6 0 0 34 19 0 0 0 5 15 2 0 0 1 1 0 0 13 7 0 0 7 8 0 0 0 0 1 0
0.077360533 0 0.070914477 0 0 0 0 0 0 2 0 0 1 13 7 0 0 2 0 0 6 14 1 5 0 0 0 1 0 0 6 127 4 0 0 9 32 9 13 12 0 0 0 5 20 75 127 55 0 0 0 66 117 79 23 7 0 0 0 17 10 1 46 127 0 0 1 100 41 2 24 52 0 0 0 47 8 9 127 127 0 0 8 127 34 9 20 25 0 0 34 46 3 0 66 127 0 0 5 103 4 1 35 70 0 0 8 73 0 0 69 127 0 0 14 127 3 0 16 33 0 0 43 39 0 0 49 119 0 0 10 1 0
0.043231063 0 0.024003288 12 9 17 6 22 16 8 24 26 6 0 6 79 35 9 7 83 21 0 2 66 35 3 12 127 127 0 0 47 27 0 0 39 4 7 28 38 7 3 40 31 5 5 42 127 13 2 4 127 14 0 6 61 41 10 34 127 54 0 5 103 62 5 4 18 43 26 19 23 5 8 8 28 6 4 26 97 37 15 4 127 70 6 17 73 19 7 19 127 33 3 27 127 18 1 2 31 31 12 7 5 6 15 23 9 7 6 27 36 22 12 9 65 34 4 12 27 8 10 14 109 15 2 14 120 14 0 3 1 0
0.062483888 0 0.04785461 81 84 0 0 1 4 2 7 61 55 0 1 45 84 4 5 2 0 1 4 40 104 13 13 2 1 7 11 4 3 17 15 88 48 0 0 48 34 2 5 137 49 0 1 23 38 4 24 20 2 2 15 137 96 4 8 9 3 6 11 25 16 11 9 97 10 0 0 125 24 0 5 137 73 3 7 32 3 0 12 32 21 5 40 137 32 1 2 48 29 1 5 23 16 7 4 48 8 0 0 120 30 0 1 137 40 0 1 7 6 0 7 44 14 1 9 137 83 1 5 55 20 0 1 39 11 0 0 1 0
0.062483888 0 0.04785461 49 16 0 0 48 22 0 1 134 88 2 4 50 17 1 6 5 5 0 4 134 50 0 0 125 40 0 0 40 9 0 0 25 16 6 3 47 34 1 4 134 39 1 2 31 23 5 29 30 3 0 7 134 82 3 5 118 33 0 3 93 11 0 0 24 17 11 9 10 4 5 9 134 99 5 6 19 2 2 11 23 43 5 16 134 57 0 1 37 33 2 3 85 61 0 0 4 3 14 13 2 1 7 13 32 99 14 15 2 0 2 3 43 98 5 4 49 50 0 1 0 3 2 7 79 89 0 0 1 0
0.14336307 0 0.069912396 19 127 21 0 5 31 4 1 26 12 0 1 89 66 1 4 129 0 0 0 13 4 0 51 35 0 0 0 0 0 0 14 129 65 3 10 27 20 16 8 94 19 0 14 129 8 0 4 129 7 0 2 24 1 0 18 38 0 0 0 0 0 0 2 129 32 3 38 47 7 1 6 114 18 0 3 129 14 0 7 129 27 0 0 27 3 0 13 35 4 0 1 5 0 0 1 129 13 0 2 39 39 3 6 97 17 0 0 110 35 0 4 129 75 0 0 37 9 0 0 41 19 0 0 7 0 0 0 1 0
0.035205565 0 0.070974454 10 2 0 4 19 0 0 1 3 0 0 65 141 0 0 2 93 0 0 28 61 1 3 130 29 0 0 3 0 0 21 121 5 0 0 2 40 1 0 5 24 0 0 22 141 13 0 5 141 5 0 4 49 3 0 78 45 0 0 44 26 0 0 22 0 4 1 0 27 6 0 0 21 2 0 0 141 88 0 0 141 65 0 0 49 25 0 1 43 20 0 26 111 6 0 0 7 51 1 0 4 2 0 0 2 2 0 0 111 95 0 0 88 91 0 0 65 72 0 0 48 73 0 0 52 24 0 0 1 0
0.035205565 0 0.070974454 92 20 0 0 39 35 0 3 55 37 0 0 129 82 0 0 138 79 0 0 5 2 0 0 8 3 0 0 14 37 0 0 96 1 0 2 38 7 0 50 46 13 0 14 138 31 0 1 138 54 0 2 26 1 0 2 31 4 0 0 0 6 0 1 10 0 0 44 44 0 1 36 55 1 0 115 138 0 0 11 138 3 0 6 17 0 0 48 32 0 0 6 2 0 0 4 0 0 39 138 22 0 0 1 73 0 4 111 53 0 0 56 138 0 0 1 0 0 0 83 9 0 0 5 17 2 0 3 1 0
0.050884444 0 0.01659224 38 7 0 0 21 11 0 1 163 34 0 1 54 2 0 0 15 2 0 1 163 13 0 0 3 4 0 0 16 1 0 0 50 3 0 11 46 4 0 1 163 2 0 1 54 5 0 6 29 0 0 4 163 26 0 2 3 0 0 0 26 7 10 17 54 2 0 8 41 1 0 2 163 0 0 5 60 0 0 24 31 0 0 24 163 3 0 4 52 0 0 1 23 8 10 29 49 0 0 4 26 2 0 11 163 0 0 16 57 0 0 40 17 1 0 48 163 0 0 2 71 14 0 2 11 1 0 4 1 0
0.050884444 0 0.01659224 12 1 0 3 69 15 0 2 163 0 0 2 18 1 0 44 54 0 0 35 163 0 0 14 26 3 0 9 46 0 0 4 24 8 9 28 55 0 0 0 163 4 0 3 33 0 0 18 59 1 0 17 163 1 0 4 42 2 0 1 53 2 0 7 24 8 10 18 4 0 0 0 163 32 0 2 27 0 0 3 55 6 0 3 163 6 0 1 46 5 0 1 50 3 0 10 14 1 0 0 3 4 0 0 163 18 0 0 13 2 0 0 58 3 0 0 163 39 0 1 20 11 0 1 41 9 0 0 1 0
0.08381889 0 0.041877456 16 4 6 21 10 1 1 9 109 26 2 4 26 9 2 14 135 56 2 12 47 6 1 15 0 0 0 25 120 6 0 0 23 3 1 6 20 9 11 38 109 27 0 8 97 3 3 17 135 71 1 7 48 7 0 10 3 1 0 12 135 14 0 0 44 7 1 2 18 1 3 16 107 4 0 7 114 3 0 31 135 15 0 7 47 16 5 81 3 0 0 33 135 16 1 2 50 11 2 2 23 1 0 6 98 12 0 2 85 2 0 10 135 39 1 15 43 6 0 23 1 1 0 25 135 5 0 0 1 0
0.15306769 0 0.081285916 29 46 41 5 0 6 10 10 4 3 23 22 44 73 7 6 48 30 3 2 35 105 29 2 83 73 0 0 23 40 5 1 89 100 71 3 8 8 0 3 60 25 48 78 44 20 5 10 57 54 47 31 29 77 21 15 52 102 5 16 47 39 4 1 82 90 3 0 46 58 0 0 49 105 52 15 44 54 29 10 48 16 51 102 37 20 39 60 8 68 15 105 63 1 0 1 2 22 4 0 87 104 0 0 1 87 105 2 10 12 1 0 1 11 105 77 2 0 2 1 2 7 7 47 4 2 5 2 1 0
0.15306769 0 0.081285916 83 88 12 1 24 9 0 7 30 57 47 6 5 4 5 18 2 2 13 22 107 53 2 2 107 0 0 1 45 25 2 28 107 28 2 1 72 4 0 31 88 24 47 60 39 10 3 50 39 49 61 23 49 61 4 18 107 4 0 3 46 52 4 13 90 75 1 2 87 2 0 1 54 107 34 17 44 47 31 12 41 17 48 97 25 19 37 69 94 50 15 72 35 4 0 2 2 32 3 1 86 5 0 0 2 107 91 4 0 0 2 0 0 11 107 85 0 1 3 1 81 50 15 32 0 0 0 0 1 0
0.15306769 0 0.081285916 2 7 17 0 0 0 5 38 1 19 39 0 0 4 97 81 0 31 74 0 0 56 107 6 1 29 89 3 0 18 46 29 99 5 0 1 3 1 4 105 34 19 44 49 34 15 60 107 45 59 36 9 4 95 84 17 15 0 0 0 3 51 76 100 107 67 0 0 2 2 18 14 59 73 29 18 40 78 37 19 66 26 64 29 4 20 32 58 26 31 72 10 6 5 3 19 15 20 12 0 0 5 107 25 11 42 45 6 1 34 107 7 0 8 83 44 4 59 74 1 1 40 107 10 0 37 28 0 1 0
0.15306769 0 0.081285916 6 0 4 4 4 1 9 42 2 1 1 0 0 7 109 69 10 42 0 0 1 75 106 2 34 109 0 0 1 22 3 0 96 1 0 1 3 19 15 109 44 20 40 55 45 15 62 91 43 56 30 9 37 109 55 14 13 67 0 0 59 109 19 0 71 31 2 0 10 109 30 24 37 61 33 14 56 64 39 31 49 26 13 4 37 25 38 85 2 1 0 1 43 78 106 22 10 69 3 0 23 105 1 0 5 78 60 4 40 89 2 1 35 109 31 1 2 3 6 14 6 24 18 26 9 8 14 13 1 0
0.15306769 0 0.081285916 16 0 0 11 107 14 13 22 0 0 2 3 31 14 107 59 0 1 3 1 5 102 102 5 8 0 0 0 6 39 2 5 48 7 1 52 99 3 9 38 31 18 41 78 37 20 60 66 43 49 35 15 62 107 35 19 28 0 0 4 100 80 1 20 96 37 4 65 56 2 0 15 62 21 5 21 31 61 66 28 35 8 6 104 79 16 44 58 65 0 0 60 104 6 0 42 107 5 0 27 13 0 4 58 52 7 7 7 5 29 25 28 1 0 4 64 88 94 9 1 94 1 0 20 36 16 0 48 1 0
0.14912982 0 0.076837346 11 4 9 13 27 26 37 22 27 4 2 101 101 19 6 10 128 16 2 24 35 2 0 24 59 3 0 12 95 1 0 11 6 15 32 12 36 24 19 10 38 0 2 20 128 97 3 6 128 6 0 1 54 20 2 36 73 12 0 3 128 11 0 4 37 22 55 41 17 5 0 24 30 27 34 13 67 123 4 5 128 21 0 0 51 55 6 9 66 13 0 0 128 28 0 0 32 35 21 29 43 34 21 17 54 23 21 56 35 17 17 48 106 62 7 40 47 12 0 1 40 26 0 1 111 26 0 0 1 0
0.066305988 0 0.079819992 54 33 0 9 10 0 0 0 124 79 0 0 46 34 0 0 14 48 2 0 107 78 0 0 7 124 30 0 6 4 0 0 28 13 0 1 0 0 0 2 124 75 0 3 21 16 0 14 32 7 1 20 124 85 4 3 0 41 27 2 41 20 31 3 42 1 0 0 0 0 0 17 124 5 2 34 30 0 0 93 59 4 2 111 109 6 20 45 19 0 0 2 46 53 103 54 68 0 0 0 0 0 1 4 124 1 0 15 75 2 0 13 124 2 0 27 91 2 1 13 76 0 0 0 86 14 4 12 1 0
0.1609721 0 0.022594886 4 0 0 22 32 0 0 0 140 0 0 9 15 0 0 32 85 0 0 40 115 2 0 13 12 0 0 24 105 0 0 4 16 0 0 20 44 0 0 0 140 5 0 4 25 5 1 47 75 2 0 5 140 38 1 17 8 1 0 31 140 2 0 1 16 0 0 2 52 15 0 0 140 67 0 3 17 3 0 9 64 25 1 32 140 18 0 3 0 0 0 35 140 3 0 0 7 1 0 6 39 7 0 0 140 26 0 2 9 5 0 30 62 10 0 11 117 50 0 15 0 0 0 9 104 31 0 0 1 0
0.12132075 0 0.036549147 10 0 0 2 40 23 0 1 141 5 1 10 16 3 0 22 68 4 3 85 74 3 1 10 3 0 1 81 40 1 1 8 18 1 0 11 78 1 0 1 141 8 0 4 27 11 1 34 64 2 0 13 121 69 5 14 2 0 0 27 118 17 1 1 16 4 0 5 81 8 0 0 141 98 1 2 18 4 0 10 70 29 1 4 139 52 0 4 0 0 0 2 108 60 0 0 2 1 0 0 67 17 0 0 141 89 0 0 18 5 0 1 99 56 1 6 78 38 0 3 0 0 0 2 91 41 0 0 1 0
0.14301661 0 0.027918069 12 0 0 8 34 0 0 2 154 7 0 2 13 0 0 38 57 2 0 32 134 0 0 9 1 0 0 36 91 0 0 0 30 0 0 4 44 0 0 3 154 0 0 0 26 1 0 38 53 0 0 21 154 9 0 7 9 0 0 36 105 3 0 1 38 2 0 4 42 0 0 0 154 16 0 2 27 1 0 7 47 3 0 12 154 15 0 1 17 0 0 6 122 14 0 2 23 3 0 0 37 4 0 0 154 37 0 0 18 3 0 0 43 5 0 2 154 23 0 0 17 0 0 0 97 11 0 2 1 0
0.036427703 0 0.010588043 63 48 0 0 1 2 0 2 131 116 1 5 107 20 0 0 1 2 0 6 158 34 0 0 32 28 0 1 4 1 0 0 37 14 1 1 4 3 1 5 158 66 0 3 69 21 0 12 21 3 0 5 158 77 0 2 16 11 1 3 12 3 0 0 39 5 5 11 6 2 3 4 158 8 1 3 50 8 0 16 34 1 0 13 158 45 0 2 8 5 0 2 25 4 0 0 36 5 1 7 20 4 0 2 158 18 0 1 29 4 0 10 32 1 0 12 158 34 0 1 4 2 0 2 31 4 0 0 1 0
0.036427703 0 0.010588043 11 1 0 0 9 2 0 1 159 13 0 2 9 0 0 35 67 3 0 40 159 2 0 10 16 2 0 10 72 2 1 6 17 1 0 0 13 4 1 4 159 16 0 5 21 0 0 45 68 5 0 66 159 1 1 9 6 2 2 10 52 3 7 13 17 2 0 0 19 7 1 3 159 39 0 5 29 3 0 19 60 10 0 42 159 33 0 5 5 3 2 9 29 4 2 2 12 1 0 0 29 13 0 3 159 18 0 0 11 7 0 27 60 4 0 0 159 90 1 9 4 3 0 3 38 15 0 0 1 0
0.0062334444 0 0.021250451 58 144 2 1 22 50 6 1 136 165 0 0 0 1 0 0 18 16 0 0 6 10 0 0 0 0 0 0 4 2 0 0 38 43 25 46 55 24 2 10 165 122 1 1 1 0 0 31 98 16 0 0 12 5 0 3 0 0 0 0 10 7 1 0 89 12 8 49 48 20 5 29 165 24 0 0 0 0 0 65 124 9 0 0 7 7 1 6 0 0 0 0 7 12 2 0 115 5 2 48 16 0 3 53 165 7 0 0 0 0 0 34 113 2 0 0 1 8 4 8 0 0 0 0 4 14 4 0 1 0
0.13895033 0 0.030041939 11 0 0 9 35 0 0 1 149 0 0 1 8 0 0 39 65 0 0 19 149 2 0 12 2 0 0 30 93 3 0 0 24 0 0 4 47 0 0 1 149 6 0 2 16 0 0 20 63 1 0 24 149 2 0 4 9 0 0 11 130 5 0 3 23 2 0 2 50 1 0 1 149 21 0 1 19 3 0 7 64 3 0 8 149 21 0 1 20 0 0 3 126 3 0 4 13 2 0 0 39 5 0 0 149 42 0 1 11 1 0 2 56 11 0 12 149 18 0 0 19 0 0 3 87 11 0 2 1 0
0.05774565 0 0.092420176 24 0 23 39 13 10 33 75 21 0 17 6 19 28 75 66 7 5 20 4 5 45 109 28 0 1 5 1 16 99 37 1 109 28 11 37 32 8 9 32 109 18 10 36 45 35 29 81 36 28 43 17 85 109 32 25 22 31 18 16 52 81 11 5 92 41 10 11 7 20 31 43 109 65 42 14 7 57 67 27 32 29 71 77 83 70 29 14 37 12 11 29 74 35 12 41 34 102 21 1 5 4 2 6 29 109 66 8 4 33 40 7 6 16 81 33 22 46 53 5 9 4 32 86 43 13 7 3 1 0
0.09766113 0 0.03894718 55 20 1 1 18 24 2 4 74 4 0 0 108 37 1 19 147 13 1 9 28 2 1 127 23 2 4 37 54 1 1 20 55 21 2 8 21 13 2 4 110 31 0 3 147 19 0 5 147 82 2 14 40 6 0 28 24 5 1 27 67 8 0 7 41 28 8 13 8 0 2 1 100 29 2 11 147 15 0 10 147 65 1 8 41 16 0 43 15 6 3 35 74 19 0 4 10 9 3 4 1 1 12 9 56 15 5 28 69 7 1 13 147 40 1 10 33 7 0 60 11 5 2 22 64 10 0 4 1 0
0.12658428 0 0.085626878 49 37 92 14 1 1 1 40 19 33 40 20 22 13 35 70 4 13 1 28 116 74 37 10 71 116 0 2 23 15 20 2 72 50 82 14 0 0 0 25 116 83 85 18 17 11 3 25 27 10 17 34 96 90 106 15 14 39 6 3 37 116 73 7 31 13 15 4 1 1 0 1 116 102 40 10 0 1 0 15 36 27 75 50 3 11 23 61 4 12 15 5 72 100 22 28 4 3 0 0 0 2 1 0 74 96 13 0 0 0 0 3 53 87 61 16 3 3 7 23 4 63 43 22 17 24 7 4 1 0
0.090641297 0 0.04255224 22 23 3 12 58 4 1 2 139 71 1 8 39 5 0 18 60 25 3 35 69 10 0 6 0 0 0 19 105 3 0 0 17 4 8 22 40 14 3 8 139 24 1 8 34 16 1 93 75 10 2 20 111 42 1 31 1 1 1 30 125 3 0 0 44 7 5 10 48 11 3 20 139 102 2 8 42 8 0 14 82 35 2 42 129 27 0 4 0 0 0 23 113 10 0 0 32 1 0 6 75 3 3 23 139 62 0 5 47 1 0 5 95 33 1 16 88 23 0 5 0 0 0 11 83 16 0 0 1 0
0.14214206 0 0.073042259 7 119 7 8 30 8 20 4 26 123 15 0 6 26 6 1 12 9 0 4 89 52 4 0 71 0 0 2 22 2 0 36 5 11 1 20 49 46 73 37 123 64 2 11 35 21 7 42 55 10 0 37 123 6 0 12 123 2 0 6 26 1 0 36 20 3 1 119 78 4 3 17 123 29 2 31 36 0 0 20 60 8 0 22 123 1 0 8 123 3 0 2 17 0 0 34 16 0 1 35 71 58 1 4 123 4 0 3 23 8 0 36 45 4 0 6 123 8 0 8 123 21 0 0 12 0 0 10 1 0
0.11378658 0 0.080674425 18 0 0 0 3 10 45 96 72 2 0 0 50 78 23 41 121 8 0 3 79 3 0 20 62 13 0 3 86 1 0 1 17 39 23 13 19 4 41 80 52 29 4 51 121 20 6 14 121 70 2 10 81 7 0 5 78 1 0 1 87 12 0 12 16 14 5 26 62 9 26 70 68 4 0 97 121 21 2 11 121 9 0 4 57 16 1 31 83 5 0 0 85 21 0 6 15 29 24 10 38 22 7 11 53 4 6 18 111 79 2 7 121 24 0 1 48 7 0 15 45 6 0 0 76 12 0 2 1 0
0.18881069 0 0.011162682 4 31 31 1 0 0 45 102 8 35 27 11 21 10 21 42 18 69 25 9 24 20 10 4 7 9 2 9 93 52 2 0 12 114 94 32 2 1 1 5 105 114 60 26 26 21 11 30 75 60 10 7 45 60 51 17 23 32 12 13 87 43 5 3 28 82 20 20 5 33 49 19 114 111 2 2 0 3 14 81 50 45 23 13 41 39 20 9 2 10 38 54 27 23 11 4 20 12 13 10 3 28 54 50 50 13 49 41 0 0 13 112 10 13 114 114 2 1 0 6 0 0 114 114 2 1 0 0 1 0
0.15108702 0 0.024689926 10 2 0 22 25 0 0 1 140 21 0 4 5 2 0 56 54 7 0 21 118 25 1 24 0 0 0 19 107 14 0 0 20 3 0 20 37 1 0 2 140 35 0 4 8 1 0 41 67 12 0 34 140 18 0 11 0 0 0 21 140 10 0 0 24 3 0 4 48 2 0 0 140 41 0 1 12 1 0 14 67 10 0 19 140 13 0 4 0 0 0 13 140 7 0 0 10 2 0 1 40 2 0 0 140 43 0 0 8 1 0 5 73 12 0 4 140 21 0 2 0 0 0 9 122 4 0 0 1 0
0.12785594 0 0.036575884 15 143 2 0 1 6 0 0 20 143 4 0 6 102 11 0 3 5 0 0 21 143 6 0 1 20 0 0 4 74 10 0 23 51 0 0 4 27 0 0 143 143 2 3 5 10 0 26 52 10 0 46 113 76 3 18 0 0 0 24 44 47 19 16 29 1 0 0 30 37 0 1 143 22 1 15 19 3 0 9 58 9 3 94 104 3 0 8 4 1 0 85 61 1 0 9 17 2 0 3 55 3 0 0 143 19 0 2 19 8 0 7 47 3 0 6 81 59 4 7 1 0 0 11 95 15 0 1 1 0
0.062441591 0 0.081014693 17 0 4 45 44 1 0 2 138 7 0 3 13 0 0 30 48 3 0 28 138 1 0 7 138 13 0 5 25 0 0 17 27 2 8 21 6 0 0 1 138 22 0 0 19 2 0 12 54 7 0 7 138 14 0 2 138 76 0 2 36 1 0 0 24 1 0 0 0 0 0 6 138 12 0 0 17 2 0 39 45 3 0 5 138 22 0 7 38 109 2 3 64 4 0 0 28 0 0 0 0 0 0 61 106 2 4 38 10 0 0 135 14 1 4 98 113 7 14 12 1 15 2 10 38 22 32 1 1 0
0.098543778 0 0.049387619 11 2 1 40 56 1 0 3 2 0 0 107 86 1 0 5 17 0 0 42 9 0 0 135 9 0 0 0 0 0 0 135 8 2 0 9 105 13 0 0 37 0 0 11 135 28 0 13 135 5 0 1 6 3 0 135 37 1 0 0 0 0 0 114 2 1 1 15 87 15 0 0 32 7 0 1 135 40 0 1 135 88 0 0 13 5 0 6 82 22 0 0 0 0 0 2 2 2 1 7 55 14 0 0 5 2 0 1 124 23 0 0 135 60 0 0 25 6 0 0 98 31 0 5 0 0 0 0 1 0
0.052959245 0 0.035868399 42 8 11 3 0 3 11 48 111 24 50 20 2 0 5 91 50 33 74 65 35 1 7 29 46 19 48 65 7 2 6 63 85 26 28 16 13 1 0 30 81 34 88 111 43 6 0 16 111 76 105 72 7 2 0 9 32 29 87 111 21 21 5 7 67 30 6 7 16 11 22 61 35 14 9 24 44 107 91 37 111 24 3 9 9 50 35 36 27 8 2 17 47 35 18 30 84 48 16 6 4 8 11 40 22 86 61 15 13 55 56 15 31 32 28 13 21 54 31 56 13 12 13 3 33 28 27 40 1 0
0.14250882 0 0.075618185 6 4 1 54 90 27 23 11 10 122 5 4 20 27 52 12 67 122 7 1 14 21 4 10 15 3 0 8 96 26 1 3 19 9 31 22 21 48 38 32 32 8 0 72 98 43 53 36 122 28 1 17 47 7 1 51 36 3 0 41 122 0 0 8 27 6 12 58 46 18 24 62 58 4 1 122 81 13 0 14 122 19 1 15 44 0 0 34 45 2 0 19 122 1 0 12 2 0 19 23 48 54 9 7 69 1 1 21 88 65 1 9 122 3 0 1 49 6 0 37 41 6 0 5 112 5 0 2 1 0
0.03747841 0 0.073656842 0 0 0 9 21 0 0 0 7 0 0 82 149 0 0 4 132 0 0 25 43 0 0 125 31 0 0 3 0 0 1 77 0 0 0 3 54 1 0 0 39 0 0 22 149 5 0 10 149 3 0 3 33 1 0 80 28 1 0 35 19 0 0 12 4 2 0 0 49 4 0 0 44 4 0 0 149 32 0 1 149 42 0 0 32 4 0 3 27 6 0 31 96 0 0 0 6 1 0 0 19 6 0 2 13 3 0 0 149 65 0 0 149 63 0 0 39 15 0 0 36 15 0 2 94 11 0 0 1 0
0.03747841 0 0.073656842 108 7 0 0 29 9 0 4 33 10 0 0 148 51 0 0 148 54 0 0 19 3 0 0 24 6 0 2 4 0 0 0 88 0 0 0 25 4 0 40 30 2 0 7 148 28 0 1 148 19 0 2 47 3 0 2 53 2 0 0 5 2 0 0 13 0 0 16 30 0 0 33 35 0 0 95 148 1 0 5 148 2 0 10 33 0 0 33 50 0 0 0 1 0 0 4 0 0 2 95 32 0 0 1 48 0 1 125 112 0 0 34 148 0 0 3 4 0 0 91 16 0 0 0 0 0 0 8 1 0
0.18107769 0 0.091580577 50 1 0 0 0 0 0 6 195 1 0 2 4 5 1 26 68 5 6 37 36 74 14 13 9 19 7 9 4 19 41 29 87 4 1 1 0 0 0 5 195 3 0 5 8 2 0 33 80 11 23 60 88 22 7 8 46 50 34 6 5 6 22 23 107 2 0 0 0 0 0 5 195 10 1 7 6 2 2 25 55 6 4 30 59 14 60 37 40 5 2 1 4 5 65 50 80 7 2 0 0 0 0 29 195 6 0 0 0 0 2 78 45 5 1 0 0 1 26 38 2 1 0 0 1 3 22 24 1 0
0.13899799 0 0.0719392 4 0 0 28 126 2 0 1 126 1 0 9 45 4 0 20 41 0 0 16 126 27 1 14 69 3 2 9 33 5 1 98 12 0 0 46 126 2 0 3 126 7 0 10 45 5 0 42 41 13 2 49 126 71 2 11 56 53 67 32 20 25 1 19 15 1 0 66 118 0 0 2 126 63 4 2 15 3 0 6 19 53 8 1 38 126 16 0 16 9 21 4 11 126 15 4 4 3 9 46 32 0 0 1 27 66 8 0 0 0 0 2 21 110 4 0 0 11 1 0 17 26 0 0 51 113 2 0 1 0
0.046647292 0 0.07846164 0 0 0 6 28 0 0 0 21 0 0 45 142 0 0 5 142 1 0 10 29 0 0 60 22 0 0 60 57 0 0 10 0 0 0 4 51 1 0 0 40 3 0 11 142 2 0 5 142 19 0 3 41 1 0 25 18 1 0 50 142 6 0 1 0 1 11 8 44 1 0 0 32 3 0 4 142 16 0 5 142 32 0 0 35 7 0 24 21 3 0 1 142 71 0 2 0 61 16 3 20 3 0 0 8 8 1 2 142 28 0 0 140 94 1 1 35 8 0 0 34 23 0 0 24 62 1 0 1 0
0.046647292 0 0.07846164 23 61 1 0 34 24 0 0 36 8 0 0 138 95 1 1 142 29 0 0 8 8 1 2 20 3 0 0 0 60 17 3 142 72 0 2 21 4 0 1 35 7 0 23 142 33 0 0 142 17 0 5 31 3 0 4 43 1 0 0 0 1 10 7 142 6 0 1 18 1 0 49 41 1 0 24 142 20 0 3 142 3 0 5 40 3 0 10 52 1 0 0 0 0 0 3 59 0 0 9 22 0 0 61 28 0 0 58 142 1 0 9 142 0 0 5 22 0 0 43 29 0 0 0 0 0 0 6 1 0
0.087528691 0 0.036431465 12 13 8 17 15 1 7 10 18 19 6 9 7 0 17 23 72 19 6 17 104 33 6 6 137 88 1 1 21 28 2 14 56 21 5 22 20 3 6 31 40 18 18 49 67 5 7 23 89 28 13 20 61 49 8 13 137 137 3 3 55 27 1 2 41 22 4 6 12 3 4 31 55 21 9 26 106 34 10 18 137 6 1 3 94 38 9 32 128 128 0 1 122 42 0 2 19 12 31 12 3 0 1 18 23 49 29 5 8 23 19 13 73 28 0 2 43 22 18 26 70 18 0 2 118 52 1 1 1 0
0.17489123 0 0.02363288 1 3 23 53 4 0 0 0 140 25 13 14 4 0 0 22 70 3 0 60 112 0 0 19 5 0 0 49 81 0 0 1 8 3 2 54 20 0 0 0 140 30 3 15 17 1 0 42 74 6 0 42 140 11 1 15 2 2 0 43 128 2 1 1 16 4 1 27 49 9 0 1 140 38 2 10 23 2 0 32 62 9 2 41 140 19 1 8 0 0 1 38 140 7 0 0 15 4 3 22 44 4 0 1 140 43 0 2 18 2 0 26 47 10 0 12 140 22 0 7 1 0 0 3 107 33 0 0 1 0
0.1279698 0 0.079387739 32 15 9 44 26 15 8 50 8 0 13 129 52 47 9 3 129 4 1 22 19 5 1 55 52 1 0 6 85 2 0 18 4 31 44 10 29 38 25 16 18 6 4 23 129 120 17 8 129 12 0 3 39 13 1 63 47 2 0 6 121 7 0 12 23 31 10 16 35 14 46 6 23 6 2 92 129 13 5 3 129 31 2 11 39 1 0 19 44 6 0 8 106 7 0 5 38 35 28 16 28 9 0 2 29 3 4 26 112 88 3 11 129 7 0 3 28 10 1 51 18 3 0 7 93 9 0 4 1 0
0.1279698 0 0.079387739 89 17 0 4 31 4 0 2 26 20 2 32 132 12 0 3 106 99 3 6 20 4 6 26 26 7 0 1 39 42 25 15 107 11 0 3 49 9 0 4 41 3 0 10 132 47 1 10 132 19 7 3 18 8 2 72 29 11 54 9 16 33 17 9 117 16 0 6 45 4 0 0 40 12 1 41 132 22 0 1 127 125 25 8 24 5 3 19 34 46 23 18 6 23 44 14 93 5 0 10 48 1 0 2 21 4 1 41 132 5 0 12 61 41 11 3 16 1 4 132 28 16 11 33 33 15 7 58 1 0
0.04682605 0 0.091979548 40 40 1 2 22 24 9 11 43 101 43 26 37 49 33 22 0 0 9 31 83 50 7 0 0 0 2 3 1 1 0 0 14 15 3 13 77 29 3 9 90 51 31 13 8 14 56 119 8 1 7 16 85 129 89 29 0 0 0 0 21 25 6 5 31 6 2 12 108 32 3 9 129 47 0 0 11 10 8 47 65 9 0 0 94 129 42 13 0 0 0 0 15 105 129 36 15 3 9 56 39 2 7 48 129 11 0 0 2 0 2 129 61 4 0 0 0 37 21 17 0 0 0 0 0 28 91 15 1 0
0.18987247 0 0.052409392 7 0 0 17 59 0 0 3 138 0 0 0 4 0 0 64 76 0 0 27 138 1 0 27 9 0 0 25 106 1 0 0 24 0 0 10 61 0 0 2 138 3 0 1 10 0 0 47 73 1 0 17 138 10 0 14 11 1 0 3 135 18 0 0 23 3 0 0 59 4 0 1 138 71 0 2 8 0 0 8 66 23 0 14 138 25 0 1 3 1 0 4 134 20 0 0 8 0 0 0 42 5 0 1 138 29 0 0 1 0 0 5 96 12 0 0 104 36 0 3 0 0 0 1 92 48 0 0 1 0
0.059959564 0 0.061023615 0 4 0 0 24 133 2 0 3 3 9 4 30 133 1 4 100 0 3 4 1 7 1 95 78 0 0 0 0 0 0 86 0 73 15 10 20 48 0 0 14 2 4 53 133 133 1 5 133 2 0 6 24 14 1 65 93 0 0 0 0 0 0 29 0 133 97 43 4 0 0 0 22 11 39 133 67 0 0 0 133 33 1 13 9 0 0 4 95 8 0 0 1 0 0 3 0 22 28 11 0 10 20 0 19 5 13 36 1 9 2 0 133 37 0 1 0 0 0 0 84 19 0 0 1 0 0 0 1 0
0.18056674 0 0.088856049 0 1 1 0 0 0 0 0 115 1 0 0 0 0 0 11 179 2 0 4 6 9 1 22 24 5 6 24 24 55 13 10 1 3 3 2 1 0 0 0 179 4 0 0 0 0 0 8 179 4 1 10 17 2 0 23 26 9 19 42 75 10 9 6 4 5 2 0 0 0 0 0 179 4 0 0 0 0 0 8 179 12 2 8 8 3 5 18 16 3 1 15 28 10 54 36 2 7 5 0 0 0 0 2 138 7 1 0 0 0 1 65 179 5 0 0 0 0 4 88 18 3 1 0 0 0 16 27 1 0
0.01195964 0 0.08829353 3 2 6 23 54 61 17 6 8 0 0 0 9 9 5 5 73 0 0 0 0 0 23 118 10 0 0 0 8 76 87 52 28 7 32 44 22 9 37 58 27 0 0 1 13 114 75 33 118 22 0 0 2 17 4 76 44 7 0 0 55 39 5 21 118 61 3 0 1 6 12 48 34 34 10 7 105 118 24 20 118 118 0 4 58 40 1 2 60 69 1 1 57 9 0 0 27 103 14 0 0 0 0 0 5 93 94 47 46 8 0 0 39 83 16 47 46 6 0 0 66 118 1 0 19 4 0 0 1 0
0.01195964 0 0.08829353 54 0 0 1 5 0 0 119 9 0 0 42 121 8 0 14 13 0 0 13 87 20 46 55 0 0 0 0 16 68 36 9 55 6 8 45 13 0 0 38 22 2 2 121 121 0 0 8 121 8 1 20 47 16 16 102 11 1 1 20 121 90 15 18 15 41 116 121 1 0 0 0 32 21 22 121 15 0 0 0 121 104 64 38 7 0 1 8 5 8 37 121 82 4 0 1 0 7 37 19 0 0 0 0 10 7 4 14 0 0 0 4 36 29 26 7 1 8 37 54 1 1 13 27 23 52 35 7 1 0
0.087818436 0 0.041038204 5 3 12 11 3 2 8 10 25 2 8 38 44 13 2 21 146 7 0 11 24 6 2 146 37 5 1 29 58 7 1 23 34 7 14 37 16 1 2 30 92 11 2 21 76 14 4 33 146 48 2 18 34 7 1 86 15 6 2 60 105 12 0 8 41 0 0 14 35 10 10 71 115 9 0 49 110 0 2 25 146 37 1 15 39 7 0 45 9 3 0 43 110 14 0 2 23 4 0 20 44 2 4 17 93 6 0 26 86 1 0 40 146 19 1 14 36 8 0 81 3 1 0 34 77 10 0 2 1 0
0.09646558 0 0.041451812 41 9 0 1 111 17 0 2 149 57 1 5 28 1 0 26 55 16 3 36 72 1 0 9 10 1 1 43 62 1 0 3 44 16 0 4 135 10 0 3 149 44 0 2 46 9 1 54 76 11 1 17 72 34 1 20 7 1 1 37 120 2 0 2 30 25 4 18 84 6 0 3 149 91 2 9 38 5 0 25 70 31 4 48 84 13 0 7 0 0 1 33 115 3 0 0 18 2 5 21 39 11 1 8 149 13 0 5 22 9 1 89 49 5 1 16 83 28 1 24 1 1 1 23 88 2 0 0 1 0
0.14560784 0 0.026683204 21 1 0 5 29 0 0 1 148 12 0 1 6 0 0 20 54 4 0 25 117 3 0 6 0 0 0 21 106 0 0 0 25 2 0 3 36 0 0 2 148 26 0 0 13 1 0 24 68 6 0 13 148 7 0 5 0 0 0 26 133 0 0 0 29 1 0 0 37 1 0 1 148 18 0 0 10 2 0 10 75 4 0 4 148 29 0 2 0 0 0 19 137 12 0 0 17 2 0 1 32 1 0 0 148 39 0 0 4 0 0 0 68 13 0 1 141 22 0 0 0 0 0 1 115 26 0 0 1 0
0.0098231807 0 0.09515094 1 0 0 10 58 0 0 2 3 0 0 0 0 6 35 27 0 0 0 0 0 26 29 3 1 0 0 0 0 1 0 3 32 1 0 13 41 0 0 9 121 28 9 9 9 44 87 121 9 5 8 38 113 121 74 23 10 1 0 1 17 19 7 4 25 11 1 7 21 0 0 1 121 121 120 33 6 5 1 15 44 23 96 121 80 25 42 80 22 0 0 3 15 112 121 53 0 2 1 3 11 0 0 0 13 17 20 1 0 0 0 0 121 67 13 2 0 2 14 72 66 44 8 3 52 121 47 45 1 0
0.0098231807 0 0.09515094 1 2 3 0 0 0 1 2 1 7 13 0 0 1 24 12 0 22 36 0 0 10 29 1 0 26 69 0 0 1 1 0 18 0 0 0 0 2 30 18 119 31 6 4 1 19 120 123 10 9 9 41 79 123 123 27 0 0 0 6 33 28 3 0 10 1 1 9 30 115 123 50 95 123 85 29 52 77 31 23 9 37 122 123 73 28 9 5 0 0 1 28 31 4 0 0 3 2 76 123 52 41 39 18 0 4 19 101 94 35 20 0 0 1 19 16 2 3 6 1 0 0 0 1 0 3 0 0 1 0
0.0098231807 0 0.09515094 19 14 41 122 0 0 0 0 122 122 82 27 0 1 5 11 13 27 98 122 66 6 4 2 0 0 0 44 36 2 0 0 24 4 2 4 1 0 0 12 106 38 27 9 5 26 98 122 5 5 28 61 88 122 90 19 0 0 0 7 21 16 0 0 31 16 1 0 0 0 0 2 122 122 97 52 7 7 12 37 7 16 73 122 93 36 11 6 0 0 0 16 17 3 3 13 1 5 2 0 0 0 0 0 1 24 33 9 0 0 0 1 0 1 18 26 0 0 8 33 0 0 0 1 0 0 37 116 1 0
0.13510333 0 0.07792142 61 38 24 12 7 2 0 11 12 7 14 85 118 24 1 3 82 1 5 61 42 9 1 83 92 0 0 21 29 0 0 64 26 40 23 14 4 15 51 67 26 7 13 105 126 26 5 37 126 2 1 19 53 11 2 126 36 0 0 46 83 0 0 44 2 8 42 84 39 23 25 16 43 10 35 126 33 26 13 5 126 46 2 17 16 2 0 10 25 5 0 11 111 8 0 1 7 21 16 16 32 34 33 18 17 3 5 36 47 92 56 5 126 51 0 3 16 13 4 28 28 8 0 13 63 14 0 4 1 0
0.17795499 0 0.02465776 1 1 96 77 0 0 0 0 88 19 69 46 1 0 0 18 66 5 3 85 68 0 0 17 1 0 1 75 69 0 0 0 10 9 33 71 4 0 0 0 137 36 12 13 12 0 0 29 62 3 0 73 137 0 0 15 6 0 0 51 118 0 0 1 18 8 3 49 22 0 0 1 137 42 3 11 24 2 0 32 55 7 0 37 137 17 1 9 2 2 0 35 137 3 0 1 19 7 2 26 32 4 0 1 137 51 2 7 19 2 0 17 41 9 2 29 137 18 1 4 0 0 0 24 119 7 0 0 1 0
0.11189333 0 0.038393792 61 31 0 0 30 9 0 0 134 134 1 3 19 11 0 3 11 13 1 9 107 38 0 1 0 0 0 0 63 57 0 0 34 10 0 0 53 16 0 4 134 72 0 1 13 9 0 46 45 12 1 6 83 68 0 13 0 0 0 1 69 60 1 0 22 9 0 0 65 21 0 0 134 134 0 0 7 4 0 9 67 90 0 0 41 94 1 3 0 0 0 0 29 101 4 0 1 1 0 0 52 42 0 0 75 128 0 0 9 11 0 1 130 134 0 0 5 23 3 6 12 4 0 6 15 79 12 1 1 0
0.11189333 0 0.038393792 8 1 0 9 67 0 0 1 143 49 0 1 8 0 0 31 97 27 2 28 87 13 0 14 0 0 0 24 97 13 0 0 21 0 0 10 75 0 0 10 143 18 0 1 11 3 1 143 72 10 1 29 100 23 3 44 1 0 0 12 101 27 0 0 39 7 0 7 75 2 0 2 143 91 0 1 10 3 0 29 66 23 0 2 107 61 0 7 0 0 0 5 81 48 0 0 12 4 0 0 58 16 0 1 143 104 0 0 3 2 0 16 103 43 0 1 42 52 1 11 0 0 0 0 41 66 5 0 1 0
0.047586929 0 0.096659511 3 5 7 32 120 38 0 1 3 1 0 3 20 12 23 33 0 45 7 0 1 37 25 7 0 120 26 0 0 2 0 0 18 5 28 108 41 7 2 5 120 22 6 17 20 27 46 120 16 7 5 32 120 120 48 29 0 23 4 3 18 10 0 0 14 0 0 25 9 8 74 108 107 76 52 31 28 69 80 33 9 22 61 120 101 12 0 1 0 1 4 10 11 0 0 0 23 0 0 15 21 9 43 120 0 0 4 105 120 86 45 23 0 1 8 35 47 10 0 0 0 3 3 0 0 0 0 1 1 0
0.11661983 0 0.037466705 13 0 0 19 51 0 0 1 146 11 0 3 4 0 0 56 88 7 0 26 95 12 1 28 0 0 0 31 96 13 0 0 28 2 0 14 71 0 0 3 146 23 0 2 9 1 1 68 81 8 0 28 128 19 2 23 0 0 0 29 121 15 0 0 28 4 0 12 64 0 0 11 146 57 1 5 10 1 0 79 62 19 2 55 113 12 0 12 0 0 0 23 117 22 0 0 56 3 0 7 38 0 0 21 146 16 0 1 22 7 2 121 16 2 0 15 89 27 1 14 0 0 0 9 86 18 0 0 1 0
0.014021209 0 0.086694792 45 3 4 1 8 18 44 93 7 0 0 1 75 94 37 22 58 0 0 0 6 8 7 133 7 0 0 2 27 34 50 79 128 86 9 14 27 6 3 25 50 11 7 50 133 24 2 12 133 4 0 4 15 2 0 71 20 0 0 35 72 2 0 14 22 120 51 17 3 0 0 0 68 32 58 89 40 0 0 2 133 44 1 8 9 0 0 9 17 4 0 82 112 0 0 0 0 9 8 0 0 0 0 0 61 11 12 4 0 0 0 3 133 24 0 10 11 0 0 11 14 2 0 78 117 0 0 0 1 0
0.10200108 0 0.0087847058 50 98 0 1 5 5 1 0 128 146 0 2 20 12 1 0 8 9 0 12 146 62 0 0 0 0 0 3 67 15 1 0 41 19 0 5 10 5 1 4 146 94 1 8 18 0 0 8 39 14 2 58 146 5 0 0 1 0 0 5 70 23 4 1 39 0 0 0 6 9 3 11 146 3 0 13 32 0 0 44 33 2 1 82 146 4 0 3 2 0 0 11 39 9 1 5 37 0 0 0 2 3 4 44 134 0 0 26 44 0 0 97 6 0 0 41 146 14 1 3 1 0 0 0 8 16 12 14 1 0
0.10200108 0 0.0087847058 21 21 12 10 0 0 0 0 145 20 0 6 38 0 0 16 15 0 1 49 145 4 0 3 8 8 4 8 14 0 0 0 44 19 3 4 2 0 0 3 145 23 0 1 47 11 0 22 21 1 0 6 145 57 0 4 4 12 2 2 28 4 0 0 43 25 5 1 4 0 0 1 145 44 1 0 18 15 1 12 40 2 0 0 145 145 1 4 9 5 1 1 38 80 0 2 19 16 5 2 5 0 0 0 145 108 0 0 0 2 0 0 50 55 2 0 38 134 1 1 0 2 1 1 34 145 3 0 1 0
0.11084688 0 0.079109021 9 0 0 0 4 33 29 23 122 0 0 0 5 12 2 50 63 0 0 19 121 0 0 14 122 5 0 4 27 0 0 7 12 1 0 3 66 65 33 59 122 9 0 3 42 24 2 46 51 4 0 22 122 0 0 9 122 18 0 3 27 0 0 6 9 13 4 55 122 8 7 12 122 64 3 23 57 3 0 7 46 15 1 11 122 7 0 5 122 0 0 0 19 2 0 36 10 1 0 81 95 7 2 6 122 6 0 16 21 3 0 37 51 1 0 0 111 17 1 13 118 3 0 0 12 1 0 19 1 0
0.11084688 0 0.079109021 22 6 0 3 112 9 0 0 85 31 1 8 76 2 0 0 33 2 0 10 125 12 0 21 111 6 3 10 5 3 0 60 20 6 0 15 125 0 0 0 125 21 0 2 49 24 1 4 69 6 0 1 125 86 3 15 125 18 9 21 8 14 5 26 22 1 0 3 125 32 0 0 125 6 0 2 45 8 0 2 37 25 2 21 125 14 0 0 41 80 32 54 22 0 0 0 14 0 0 0 125 23 0 0 125 2 0 2 51 2 0 2 13 6 1 20 125 0 0 0 1 25 24 14 20 0 0 0 1 0
0.029677337 0 0.043954954 7 8 9 3 7 5 32 47 7 13 19 5 4 26 85 26 27 6 14 27 2 4 15 41 47 7 19 21 1 0 4 150 4 16 51 11 2 3 6 9 22 34 106 11 3 8 10 6 108 20 19 17 2 2 35 150 24 6 5 2 0 0 43 150 14 4 2 2 1 9 28 12 37 10 4 1 5 36 44 11 150 150 35 0 0 4 9 73 38 150 150 0 0 0 6 63 35 3 0 0 6 11 9 24 18 4 10 3 4 48 41 19 8 50 19 0 1 21 61 10 12 103 83 0 3 5 13 4 1 0
0.030589202 0 0.067388318 36 17 0 8 160 62 0 0 160 84 0 0 10 2 0 0 57 14 0 0 0 0 0 0 0 0 0 6 12 0 0 0 45 2 0 64 160 10 0 0 160 17 0 4 16 0 0 2 113 5 0 0 0 0 0 1 0 0 0 1 21 6 0 0 50 0 0 103 155 0 0 13 160 1 0 1 6 0 0 49 103 9 0 0 0 0 0 4 0 2 0 0 2 4 0 0 70 0 3 65 8 0 0 45 160 6 0 0 0 0 0 69 49 23 0 0 0 0 0 3 2 6 0 3 0 0 0 0 1 0
0.10892627 0 0.03983799 16 0 0 29 39 0 0 6 147 0 0 3 5 0 1 147 51 1 0 25 72 3 7 100 1 0 0 34 56 4 0 0 53 1 0 14 48 0 0 7 147 12 0 1 7 1 0 51 67 4 0 9 138 14 0 12 0 0 0 21 93 12 0 0 38 2 0 2 39 2 10 50 147 23 0 0 6 3 6 130 54 4 0 3 116 41 1 17 0 0 0 0 79 39 2 0 20 0 0 3 7 1 31 147 40 1 22 27 5 1 28 147 9 1 30 39 35 21 3 18 0 0 0 8 29 47 3 0 1 0
0.10158748 0 0.076402567 49 121 0 0 16 34 0 0 10 7 0 0 86 104 0 6 132 0 0 0 11 11 0 70 55 0 0 0 0 0 0 27 132 60 0 0 11 2 0 18 54 7 0 2 132 20 0 11 132 3 0 0 28 3 0 53 46 0 0 0 0 0 0 14 132 45 0 0 8 1 0 4 67 12 0 0 132 26 0 2 132 35 0 0 31 5 0 2 47 9 0 3 2 0 0 0 132 42 0 0 1 0 0 0 69 18 0 0 123 29 0 0 132 55 0 0 40 10 0 0 49 28 0 1 10 0 0 0 1 0
0.10158748 0 0.076402567 12 0 0 0 43 19 0 3 33 6 0 0 133 46 0 0 133 22 0 0 63 11 0 0 3 0 0 0 133 30 0 0 1 0 0 1 45 5 0 3 29 2 0 4 133 21 0 0 133 16 0 2 69 8 0 1 10 0 0 5 133 35 0 0 0 0 0 18 47 0 0 0 31 2 0 65 133 0 0 1 133 12 0 13 53 6 0 6 10 1 0 26 133 45 0 0 0 0 0 39 58 0 0 0 16 13 0 77 127 0 0 0 97 93 0 4 10 9 0 0 13 23 0 0 64 121 0 0 1 0
0.17455415 -0.029999999 0.081467196 0 10 35 126 24 0 0 0 134 136 122 96 6 0 0 5 74 110 84 24 20 10 11 21 0 6 9 17 28 12 4 0 22 20 28 159 63 0 0 0 159 146 53 102 9 0 15 31 107 69 36 2 0 2 80 54 2 7 3 1 0 0 2 1 14 2 1 36 10 0 0 0 159 32 6 8 1 0 1 13 65 40 20 0 0 0 16 10 0 0 0 0 0 0 0 0 0 0 0 0 0 0 0 0 0 0 0 0 0 0 0 0 0 0 0 0 0 0 0 0 0 0 0 0 0 0 0 0 1 0
0.05300786 -0.029999999 0.076258227 0 0 15 138 17 2 11 4 1 1 11 138 29 17 60 23 8 5 6 79 6 4 120 138 16 7 2 2 0 0 16 83 1 0 16 138 34 14 47 22 12 25 27 95 107 39 67 19 116 95 23 14 4 3 30 46 19 10 2 9 13 1 9 11 6 0 0 6 33 40 65 42 12 4 2 21 127 138 52 21 131 23 2 3 5 24 39 67 14 6 1 1 4 0 1 1 9 17 19 58 26 15 36 20 0 0 1 53 55 51 16 1 2 0 0 0 1 10 14 6 0 0 0 0 0 0 0 0 1 0
0.097854175 -0.029999999 0.080267347 2 1 0 0 0 0 1 0 18 6 0 2 10 75 47 12 32 5 1 2 23 85 117 77 14 0 0 0 117 82 14 31 18 2 0 0 0 0 0 1 117 24 2 5 3 9 28 54 16 5 3 76 63 42 78 32 9 0 0 45 117 33 19 51 11 3 5 2 0 0 0 1 95 107 100 25 2 0 0 6 11 53 78 117 48 6 0 2 108 2 2 31 63 13 4 65 0 0 6 12 12 9 2 0 7 51 116 65 49 40 5 2 55 117 76 34 7 3 3 6 117 19 11 40 11 0 0 35 1 0
0.14323324 -0.029999999 0.078310259 8 4 1 0 0 0 0 2 19 11 19 23 21 6 6 10 0 9 9 7 123 78 1 0 1 0 0 0 123 69 2 7 3 12 5 3 2 3 5 2 15 43 88 105 44 32 6 3 110 93 48 20 120 47 2 9 5 0 0 0 123 100 13 40 8 7 0 0 2 11 15 12 16 7 3 12 49 123 66 27 123 12 2 3 98 49 54 104 15 0 0 1 123 61 11 40 48 14 0 0 0 0 1 15 34 4 1 5 10 44 57 42 8 1 10 21 81 30 27 39 8 0 0 13 123 14 13 30 1 0
0.041660618 -0.029999999 0.091486968 0 7 26 123 20 9 126 87 17 66 35 12 4 2 126 126 18 26 3 4 11 5 45 69 13 33 9 22 13 0 0 8 11 17 40 126 126 40 30 20 126 126 56 32 18 9 6 40 68 19 2 12 13 9 21 24 3 2 1 36 45 0 3 9 5 0 0 10 117 126 70 22 126 19 3 1 8 43 78 126 43 26 18 10 2 0 2 7 0 0 0 5 2 0 0 0 1 0 1 43 55 42 16 1 1 1 0 0 0 23 23 7 0 1 0 0 0 0 0 0 0 0 0 0 0 0 0 0 1 0
0.11292306 -0.029999999 0.056957223 3 0 1 36 126 2 0 0 126 13 4 24 102 1 1 17 63 5 4 40 42 5 7 53 27 0 0 0 24 46 33 51 14 2 81 126 120 0 0 0 126 16 3 46 52 4 19 36 72 28 11 20 20 11 53 81 36 33 23 30 62 12 2 25 21 3 46 49 38 16 1 3 126 59 3 14 12 4 3 12 34 41 32 49 45 9 6 6 4 47 59 28 11 4 1 4 8 8 4 30 61 4 0 1 126 73 3 17 25 2 0 3 46 23 38 71 126 21 1 3 22 118 52 18 15 4 1 6 1 0
0.13746801 -0.029999999 0.015888222 86 0 0 0 6 13 32 87 133 10 0 3 9 4 12 55 21 3 0 10 63 13 1 3 0 0 0 0 0 0 0 0 107 1 0 0 27 39 20 99 133 10 0 4 30 7 12 72 29 2 0 29 133 11 2 11 0 0 0 0 3 0 0 0 68 14 1 2 59 44 4 17 133 96 15 19 22 1 11 14 15 22 14 58 133 9 6 2 0 0 0 0 5 0 0 0 55 7 1 3 100 24 19 82 39 19 4 3 1 7 133 133 1 4 4 10 35 108 133 11 0 0 0 0 3 8 1 0 1 0
0.13746801 -0.029999999 0.015888222 7 20 9 0 0 0 0 0 29 86 131 36 2 6 5 8 1 1 131 131 52 24 4 2 106 58 5 42 41 10 1 2 8 1 0 0 0 0 0 0 131 14 10 3 15 29 16 42 21 2 6 11 131 115 14 14 46 62 5 15 80 15 1 1 2 0 0 0 0 0 0 0 131 21 2 5 23 3 0 14 34 10 10 45 131 21 0 2 12 31 21 93 129 2 0 0 0 0 0 0 0 0 0 0 54 15 1 1 6 1 0 5 18 7 5 25 131 35 0 3 1 6 27 72 127 4 0 0 1 0
0.15952499 -0.029999999 0.094815284 8 6 29 22 30 22 20 4 0 0 5 10 29 7 4 0 0 0 0 0 0 0 1 0 0 0 0 0 0 0 0 0 22 55 128 106 27 20 8 5 128 77 49 12 12 8 46 36 11 2 0 0 0 42 59 11 0 0 0 0 0 7 0 0 30 29 44 22 21 128 128 57 128 53 7 0 2 8 71 128 23 76 16 2 4 69 20 5 0 5 5 18 65 49 2 0 0 128 128 4 3 33 38 6 1 87 128 5 5 5 26 17 0 54 88 36 3 1 0 0 0 6 25 108 63 3 0 0 1 0
0.14519186 -0.029999999 0.062849253 9 2 2 25 34 2 0 2 148 9 2 10 8 1 0 30 51 15 22 38 16 2 1 11 6 46 30 15 8 2 0 1 40 13 21 101 17 0 0 0 148 17 4 23 26 1 0 35 35 24 52 115 148 2 0 12 44 129 49 17 8 0 0 3 95 13 22 76 13 0 0 0 148 29 3 12 27 3 0 2 27 13 3 31 148 79 29 10 69 46 4 3 13 18 44 67 101 6 3 21 10 0 0 1 148 21 0 0 2 2 0 0 22 5 2 3 13 47 29 11 6 0 0 1 11 16 52 48 1 0
0.1816591 -0.029999999 0.03053572 0 1 1 0 0 0 0 0 12 3 0 1 1 0 0 0 45 1 0 0 0 0 6 26 1 0 0 0 0 7 21 10 10 12 9 4 31 32 0 0 99 20 2 8 16 8 1 6 167 16 0 1 2 3 16 93 32 1 0 1 34 42 48 40 32 1 0 0 111 142 1 6 110 1 0 0 7 25 28 51 167 35 1 1 4 3 8 47 65 18 1 10 75 9 1 4 19 0 0 0 145 167 3 8 88 0 0 0 9 19 32 94 167 6 0 0 0 0 19 70 61 5 0 6 38 14 2 6 1 0
0.058171209 -0.029999999 0.055425063 19 0 0 0 122 95 0 3 122 1 0 5 19 12 0 13 22 4 37 73 48 6 0 1 2 63 81 14 4 2 0 0 10 0 0 0 122 122 1 3 122 1 0 0 47 44 5 27 28 1 2 13 90 122 18 6 14 25 8 3 7 51 68 14 3 0 0 0 122 113 0 1 122 18 0 0 73 62 1 9 54 10 0 0 36 83 14 4 7 0 0 0 4 32 85 26 0 0 0 3 120 42 0 0 81 15 0 0 100 51 1 1 65 17 0 3 27 21 1 3 45 4 0 3 18 7 5 20 1 0
0.087904289 -0.029999999 0.05459255 12 0 0 19 138 3 0 4 138 1 0 3 61 6 0 48 25 2 0 5 79 32 6 8 15 1 0 0 6 67 54 12 25 0 0 27 138 13 0 3 138 7 1 4 60 10 1 32 35 4 4 38 84 24 2 14 44 3 1 5 4 18 29 62 24 2 0 27 138 6 0 0 138 35 7 22 53 3 3 4 68 10 8 68 69 10 21 51 110 4 0 2 6 8 8 76 24 4 21 95 118 1 0 0 138 15 0 11 19 2 12 23 27 10 6 11 25 13 61 43 25 59 23 10 10 1 2 16 1 0
0.11891415 -0.029999999 0.088112459 2 6 6 2 11 45 120 79 91 25 6 1 0 1 93 120 60 27 38 34 5 2 16 45 22 86 34 17 14 8 26 36 60 18 2 0 3 17 115 97 13 6 6 6 40 49 65 64 87 18 4 9 7 6 51 120 27 17 1 1 7 34 116 113 48 58 21 1 2 2 0 4 8 30 87 18 34 24 2 2 79 120 52 10 5 6 2 13 21 120 61 0 0 7 5 7 0 2 3 0 0 0 0 0 0 3 51 4 0 0 0 0 0 51 68 4 0 0 0 0 1 108 98 0 0 0 0 0 1 0
0.11891415 -0.029999999 0.088112459 7 4 0 0 23 134 46 4 0 0 0 0 63 134 13 0 0 0 0 0 2 44 37 0 0 0 0 0 0 2 2 0 19 42 99 29 43 31 0 0 5 3 26 76 134 89 11 2 27 5 0 5 12 73 70 15 0 0 0 0 11 47 14 1 5 22 134 42 32 44 20 7 14 11 79 84 25 4 13 13 83 33 66 22 17 20 9 16 3 4 23 53 87 32 3 2 3 4 10 27 50 46 28 5 1 1 107 134 75 16 13 6 5 72 134 53 4 2 0 0 23 86 99 29 14 3 1 3 1 0
0.17929818 -0.029999999 0.017229896 76 13 3 10 15 1 0 11 152 6 0 0 0 0 51 95 2 0 0 0 9 26 125 26 0 0 0 0 25 41 16 0 157 11 1 6 48 8 1 13 157 15 0 2 4 2 16 81 22 3 1 38 78 41 48 36 0 0 0 9 92 17 1 0 111 1 0 0 34 21 10 66 157 56 5 7 7 0 0 40 29 23 11 47 89 30 5 6 0 0 0 6 95 14 1 0 60 1 0 0 2 37 31 22 157 11 0 6 8 4 4 30 28 16 19 31 51 20 11 13 1 3 2 3 96 7 1 1 1 0
0.088982411 -0.029999999 0.032785643 16 1 3 8 158 12 0 7 158 1 0 0 33 5 2 83 75 4 0 2 1 1 44 42 3 3 1 2 1 1 48 5 30 0 0 1 158 26 4 4 158 8 0 0 41 1 0 26 96 15 4 1 0 1 10 21 1 3 3 2 1 6 15 3 32 6 1 10 158 10 0 0 158 34 0 2 42 0 0 21 72 47 10 0 0 0 11 33 2 10 11 0 0 2 12 6 33 3 1 38 158 0 0 0 158 2 0 5 25 0 0 33 72 1 0 2 9 3 12 38 9 7 2 2 5 2 8 4 1 0
0.077585317 -0.029999999 0.050649755 14 0 0 0 149 36 0 3 149 8 0 0 33 8 0 19 47 13 5 9 62 22 0 4 22 10 0 1 49 50 13 7 16 0 0 6 149 28 0 2 149 3 0 0 52 10 1 26 49 2 1 6 46 22 2 11 10 9 1 6 32 45 7 3 11 0 0 13 149 40 0 0 149 29 0 0 59 11 0 5 74 15 1 9 45 51 8 5 31 6 8 46 61 16 0 7 4 0 0 3 149 32 0 0 149 37 0 0 66 8 0 0 53 40 18 37 45 4 1 0 65 2 2 39 78 4 2 22 1 0
0.10702191 -0.029999999 0.063888721 1 116 79 0 0 1 0 0 1 63 45 9 0 0 0 0 0 1 63 109 8 1 1 1 11 3 29 115 30 4 0 4 17 116 64 0 3 108 55 4 116 116 35 16 13 15 12 10 14 6 44 113 59 92 62 11 23 3 24 35 2 18 54 68 9 3 4 14 28 112 41 10 116 21 0 0 2 28 24 65 46 8 8 5 7 74 61 11 4 3 2 8 32 64 42 9 1 45 99 4 3 5 2 2 40 77 83 0 0 2 3 14 9 33 116 15 1 0 0 0 0 2 48 40 21 3 0 0 1 0
0.034705594 -0.029999999 0.092173882 11 0 0 0 0 0 2 26 10 1 3 4 3 27 71 93 0 0 1 5 24 80 46 4 0 0 0 33 130 22 4 0 73 4 1 0 2 1 2 61 49 16 71 81 35 13 14 48 62 21 52 40 39 59 16 13 9 0 0 0 130 130 6 6 77 0 0 18 25 3 4 109 24 3 8 94 130 8 4 19 130 57 8 9 17 15 2 14 36 32 8 5 130 130 5 5 56 6 5 59 55 0 0 39 34 3 2 90 72 0 0 6 57 50 4 1 0 0 0 7 9 51 33 11 22 32 2 0 1 0
0.034705594 -0.029999999 0.092173882 15 131 6 0 0 18 13 3 8 131 12 1 8 84 7 0 0 8 5 2 26 131 9 0 0 0 0 0 1 18 5 0 4 17 0 0 0 40 36 3 16 131 33 1 3 28 27 3 78 63 28 5 22 60 29 16 5 0 0 4 60 78 17 3 10 6 34 4 0 13 97 61 10 6 57 14 4 96 131 15 90 25 40 43 10 19 25 25 5 3 21 77 72 14 0 0 8 12 131 105 7 0 5 11 0 53 131 30 3 12 7 0 0 86 131 33 3 4 2 0 0 30 22 23 6 2 0 0 1 0
0.12894475 -0.029999999 0.094515488 3 8 3 3 10 65 36 2 5 0 0 0 0 66 129 45 0 0 1 5 3 11 129 116 12 7 5 8 3 0 94 125 46 41 2 0 0 0 1 10 129 26 1 0 3 16 53 127 14 10 6 14 109 107 60 43 8 28 26 16 32 8 2 4 26 7 0 0 0 1 6 17 100 129 24 2 4 9 6 15 11 129 37 18 129 65 2 3 22 6 4 1 41 74 11 4 0 0 0 0 0 0 0 0 0 31 4 0 3 11 0 0 0 124 55 6 7 16 0 0 3 29 62 21 11 39 6 0 1 0
0.12894475 -0.029999999 0.094515488 15 0 0 0 0 0 5 11 38 0 0 0 1 2 17 46 1 0 0 0 84 140 37 14 0 0 0 1 91 140 11 0 7 0 0 0 4 8 12 11 82 4 0 3 4 10 70 140 9 2 4 27 63 140 133 60 0 3 7 6 17 140 88 0 27 2 0 4 10 0 0 2 140 31 13 45 17 2 3 39 25 14 21 140 84 11 6 9 30 22 19 24 10 26 16 8 22 12 6 3 2 0 0 1 129 59 7 21 41 1 0 3 7 6 4 48 85 8 4 21 11 13 12 6 2 16 47 37 1 0
0.14539187 -0.029999999 0.03992128 29 5 0 0 79 82 0 1 133 20 0 0 1 1 0 38 37 1 0 1 9 26 22 59 54 8 0 3 19 29 19 11 24 1 0 0 133 133 1 2 133 9 0 0 13 15 3 62 52 2 0 4 21 31 16 68 51 3 0 5 44 51 3 6 10 0 0 0 133 133 0 1 133 38 0 0 45 49 1 12 78 19 4 32 20 10 1 5 41 6 1 31 43 15 0 0 0 0 0 1 133 98 0 0 133 18 0 0 81 69 2 6 94 11 0 3 17 25 1 4 20 4 0 3 40 27 0 0 1 0
0.054970481 -0.029999999 0.08561071 13 23 22 22 20 13 0 0 100 130 5 0 0 0 0 0 117 130 13 3 11 3 0 0 11 32 24 4 10 8 15 30 13 3 0 0 77 43 1 7 121 46 0 0 0 0 1 18 130 92 7 0 0 0 0 8 14 34 44 6 0 0 0 0 4 0 0 0 92 130 17 22 59 1 0 0 0 5 19 128 130 3 0 0 0 0 1 96 15 0 1 6 7 0 0 2 6 12 4 2 29 130 54 6 8 0 0 0 2 40 130 130 24 0 0 1 12 12 39 99 1 0 0 3 12 4 1 1 1 0
0.035883494 -0.029999999 0.080598496 3 88 137 2 0 0 0 0 23 52 16 1 4 6 6 6 1 0 0 9 12 16 5 2 0 0 1 20 2 0 0 0 89 139 62 0 0 0 0 7 139 112 5 0 7 17 12 25 27 1 0 10 98 68 12 10 0 0 0 38 24 2 1 1 139 4 0 0 0 0 0 70 139 21 3 19 12 1 0 73 37 7 3 99 126 8 1 3 6 0 0 29 21 1 11 64 94 0 0 0 0 0 2 133 139 25 3 10 5 1 1 67 13 8 2 31 29 28 59 15 21 3 8 14 6 6 32 66 1 0
0.17062545 -0.029999999 0.035427354 0 1 2 67 136 1 0 0 12 78 17 23 39 0 0 0 4 45 14 35 30 7 2 0 2 0 0 27 119 12 1 0 0 0 2 66 136 5 1 0 7 36 21 57 67 6 3 0 61 99 17 24 37 1 1 1 4 4 0 43 136 2 0 0 0 0 9 100 136 5 0 0 38 6 30 116 36 0 0 3 136 14 4 22 49 0 0 16 6 0 0 30 135 0 0 1 0 0 0 69 136 0 0 0 63 2 6 21 31 0 0 11 120 7 3 25 44 0 0 20 2 0 0 26 78 0 0 2 1 0
0.041180409 -0.029999999 0.077752545 0 41 137 19 2 0 0 0 8 112 127 2 0 0 0 0 20 35 6 1 4 10 10 9 0 0 0 7 7 13 4 0 17 29 66 19 26 3 0 10 128 137 44 0 0 0 0 10 137 88 1 1 17 29 17 30 10 0 0 6 81 56 8 4 26 1 0 7 3 0 4 24 137 6 0 0 0 0 0 79 137 20 4 29 25 2 0 61 15 3 2 77 105 6 0 0 19 2 0 0 0 4 10 32 125 1 0 0 0 0 0 137 115 18 12 24 10 2 3 52 5 2 2 37 25 24 40 10 1 0
0.11078967 -0.029999999 0.076331563 1 4 47 98 8 14 5 0 50 62 102 62 4 36 53 7 40 15 2 0 0 3 68 79 0 0 0 1 2 1 12 34 5 2 50 130 109 22 1 3 130 57 45 54 50 19 2 59 130 12 0 2 2 1 1 50 3 0 0 10 6 2 2 6 2 0 3 6 82 81 10 2 130 76 0 0 22 58 16 27 113 119 59 6 3 3 0 5 0 1 81 65 3 3 3 1 9 29 11 5 24 29 17 2 21 30 6 8 17 45 17 5 14 75 120 10 1 0 0 2 1 1 111 56 3 6 5 10 1 0
0.1368769 -0.029999999 0.011767318 22 22 20 1 0 0 16 66 7 30 21 1 3 12 66 63 4 7 9 2 20 120 23 12 5 10 2 0 26 120 0 0 32 79 73 33 13 7 6 14 120 115 59 8 6 28 16 39 35 14 14 4 12 106 23 12 9 2 1 4 40 120 4 3 47 87 2 3 5 7 10 20 120 94 108 29 9 6 9 43 76 120 120 16 13 37 5 6 18 10 4 27 73 51 2 2 9 42 0 0 0 0 0 0 24 87 22 22 18 11 12 10 120 71 25 11 8 9 16 52 34 19 16 24 41 17 11 6 1 0
0.19429438 -0.029999999 0.094527803 5 0 0 0 0 0 0 0 155 0 0 0 0 0 0 33 77 5 0 0 0 0 11 17 0 2 3 0 0 1 21 1 18 0 0 0 0 0 0 1 155 7 0 0 0 0 3 70 76 12 0 0 0 0 78 92 0 0 0 0 0 6 117 10 29 2 0 0 0 0 0 0 155 125 3 0 0 0 0 8 109 155 23 0 0 0 11 16 4 13 32 1 0 7 24 5 9 5 0 0 0 0 0 0 65 152 25 0 0 0 0 0 16 155 119 0 0 0 0 0 1 57 127 4 0 1 1 0 1 0
0.10496831 -0.029999999 0.086967722 4 21 11 10 64 57 0 1 88 0 0 1 9 10 5 119 42 0 1 0 0 13 133 138 0 0 1 0 3 138 138 4 20 39 67 22 16 4 0 1 138 11 6 5 5 1 0 87 111 7 7 5 3 0 3 55 3 9 5 1 8 27 5 0 39 20 8 0 0 0 0 0 138 77 0 0 0 0 0 4 118 31 0 2 8 7 3 2 4 11 3 1 4 5 2 0 20 15 0 0 0 0 0 0 138 115 0 0 0 0 0 0 128 101 0 0 0 7 5 1 1 5 1 0 10 17 3 0 1 0
0.13090907 -0.029999999 0.066005439 2 130 130 0 0 3 0 0 6 107 70 1 16 48 2 0 1 7 1 1 71 86 1 0 0 0 0 0 8 30 5 0 27 123 117 0 0 0 4 12 130 130 46 2 7 1 0 10 44 25 1 20 129 15 0 0 0 0 0 2 25 6 6 11 32 1 0 0 0 0 44 103 130 7 1 3 8 1 7 130 50 3 1 32 99 4 0 10 32 0 0 3 13 0 4 42 5 0 0 0 0 0 100 107 42 8 30 10 4 0 12 102 8 4 29 39 36 2 0 4 51 24 7 3 4 0 0 5 1 0
0.14316039 -0.029999999 0.0089258654 54 40 28 18 15 13 17 38 121 67 27 1 4 24 11 70 19 14 17 3 17 90 13 10 9 1 2 4 46 111 2 4 76 97 7 4 1 2 9 23 70 121 121 47 16 4 3 23 121 121 100 8 16 29 2 9 13 4 6 36 84 38 1 2 29 75 2 3 2 0 0 0 66 67 19 27 28 28 34 48 121 72 23 12 7 6 14 82 20 13 17 36 78 22 16 5 5 9 0 0 0 0 0 0 76 101 0 0 0 0 4 11 104 63 5 2 1 0 1 29 16 16 42 56 26 2 11 19 1 0
0.14316039 -0.029999999 0.0089258654 1 0 0 0 0 0 0 9 21 5 2 0 0 0 5 119 16 8 4 6 13 43 94 83 74 17 5 5 5 14 101 94 5 0 0 0 3 5 7 100 39 38 36 28 23 25 26 86 119 71 17 8 2 5 62 96 29 4 4 55 36 11 84 51 8 0 0 0 1 9 38 119 27 9 4 6 15 50 119 117 104 15 10 32 7 4 96 119 13 6 5 60 25 6 12 9 7 14 33 8 0 5 43 65 28 33 30 9 10 13 32 29 4 18 84 70 9 2 10 9 1 16 48 119 7 0 1 1 1 0
0.13181078 -0.029999999 0.0090857465 9 7 0 0 0 0 2 21 17 10 13 0 0 2 35 105 18 11 14 1 4 31 61 57 12 20 14 2 10 99 19 6 30 108 5 4 2 0 0 6 41 71 118 57 27 7 7 34 118 117 95 8 12 54 17 22 28 33 13 2 14 104 18 6 21 118 1 2 4 1 0 0 42 84 13 22 42 46 40 35 118 75 59 11 3 16 23 70 24 56 104 11 12 77 11 3 4 29 0 0 0 0 0 0 29 118 0 0 0 1 6 6 17 76 49 42 37 11 6 8 89 83 92 24 18 13 10 19 1 0
0.13744864 -0.029999999 0.040531922 27 0 0 0 139 50 0 4 160 5 0 0 2 1 1 61 46 5 5 12 11 8 13 24 0 0 3 9 21 25 10 1 38 1 0 0 160 96 0 1 160 22 0 0 11 6 0 8 55 10 14 21 27 11 0 4 0 1 45 33 15 11 1 2 27 0 0 0 160 81 0 2 160 10 0 0 31 10 0 14 66 7 1 5 34 31 1 4 1 0 6 9 34 36 6 9 17 0 0 0 160 50 0 4 160 3 2 0 39 10 0 53 37 3 12 2 13 15 7 19 0 0 2 6 37 31 2 0 1 0
0.1708061 -0.029999999 0.10061433 26 9 0 0 0 0 0 0 190 85 1 3 9 1 0 5 55 24 2 15 46 14 6 8 12 10 2 21 93 14 2 2 36 1 0 0 0 0 0 1 190 25 0 1 4 5 3 63 80 7 0 7 52 45 15 37 7 2 1 11 117 30 5 4 32 0 0 0 0 0 0 0 190 38 1 5 6 2 0 9 99 19 4 39 69 16 1 11 11 3 1 13 116 26 3 9 16 1 0 0 0 0 0 0 190 63 3 1 2 1 0 2 72 38 26 22 27 15 5 8 8 13 19 19 98 18 4 7 1 0
0.05230559 -0.029999999 0.016094794 2 3 4 53 129 0 0 0 129 30 9 21 25 0 0 14 96 4 2 18 34 0 0 10 30 2 0 10 42 0 0 3 7 4 1 31 129 4 1 7 129 23 2 12 38 3 2 70 85 15 20 94 26 0 0 11 71 13 7 18 48 1 0 3 11 13 3 44 129 4 1 3 129 76 10 20 39 2 2 19 100 24 11 70 95 0 0 2 124 12 3 14 68 0 0 1 11 6 2 37 129 2 0 3 61 59 39 15 14 3 10 13 40 62 57 48 22 6 4 0 45 59 64 23 52 0 0 0 1 0
0.11145238 -0.029999999 0.069079511 2 4 3 0 1 17 16 5 0 0 13 20 2 61 52 0 3 9 29 12 1 39 139 14 7 2 1 0 0 0 55 69 1 15 35 39 7 8 2 0 8 10 98 139 56 3 0 0 139 95 126 62 6 1 0 8 66 9 1 0 0 0 0 29 0 1 72 61 18 2 0 0 28 4 15 99 139 70 3 7 139 41 8 12 24 26 4 27 97 12 0 0 1 1 1 21 0 0 8 4 14 25 26 7 4 0 0 2 56 82 3 1 139 79 0 0 10 54 14 9 64 103 10 0 0 1 0 1 1 0
0.16400325 -0.029999999 0.10070104 18 0 0 0 0 0 0 2 180 5 0 2 2 1 1 67 88 6 2 23 57 18 4 30 8 2 1 17 75 10 2 2 32 0 0 0 0 0 0 2 180 15 1 3 5 1 0 37 97 14 5 34 57 17 2 18 12 4 2 18 108 22 4 15 39 1 0 0 0 0 0 0 180 69 9 2 1 0 1 12 58 49 53 31 17 9 24 13 6 21 27 36 119 15 11 5 30 1 0 0 0 0 0 0 180 80 20 0 0 0 2 11 29 66 130 2 0 3 39 15 2 35 42 23 71 37 21 3 1 0
0.047208577 -0.029999999 0.066541262 1 130 88 8 49 84 0 0 82 142 12 5 65 85 0 0 103 142 10 13 19 0 0 0 0 3 3 17 27 5 0 0 7 95 45 4 5 3 0 0 77 85 74 44 40 19 0 2 142 139 7 7 3 0 0 6 17 14 5 7 2 0 0 0 0 2 4 1 1 18 21 7 95 6 16 7 2 21 22 35 142 10 1 0 0 0 1 59 26 6 3 0 0 0 0 1 0 0 0 0 2 19 29 9 48 0 0 0 0 5 41 93 142 1 0 0 0 0 2 90 12 4 3 0 0 0 0 0 1 0
0.17400503 -0.029999999 0.040997695 25 1 0 4 8 0 0 1 157 27 2 8 27 7 3 45 21 7 1 23 157 26 4 12 0 0 0 1 28 2 2 2 28 1 0 1 9 1 0 1 157 28 1 6 31 11 2 40 32 6 1 16 157 48 2 12 36 0 0 0 36 5 11 39 27 3 0 4 4 0 0 0 157 44 2 3 32 4 0 12 43 9 2 8 157 49 8 4 125 7 0 1 35 23 15 38 16 2 0 2 2 3 0 1 157 12 0 1 16 5 0 26 53 3 0 5 119 72 33 20 54 16 1 1 21 92 38 18 1 0
0.17400503 -0.029999999 0.040997695 23 77 30 21 70 16 1 3 128 74 36 20 34 2 0 4 27 5 0 44 158 3 0 2 2 3 0 3 26 1 0 2 33 17 12 53 116 3 0 2 158 34 7 6 38 6 2 20 37 3 0 19 158 24 2 5 3 0 0 1 32 2 0 4 41 3 12 35 23 0 0 1 158 32 2 15 36 6 1 28 27 8 2 55 158 16 1 6 9 0 0 3 24 0 0 2 42 1 1 1 0 0 0 3 158 18 5 20 33 7 1 35 15 4 3 47 158 16 1 7 9 0 0 0 16 0 0 5 1 0
0.012198541 -0.029999999 0.086924456 1 14 34 7 2 0 0 0 0 28 104 21 2 0 0 0 21 66 90 1 0 0 5 13 3 10 42 34 27 30 14 9 1 1 9 24 17 0 0 0 31 22 36 105 82 0 0 1 138 74 62 26 6 3 17 91 22 29 68 19 53 92 44 40 0 0 2 12 31 4 0 0 72 4 1 25 138 37 0 6 138 51 45 30 29 34 48 35 43 65 77 41 66 45 92 40 0 0 0 1 18 6 0 0 24 3 0 0 102 49 1 3 138 89 0 0 16 16 22 29 60 29 3 13 91 47 43 16 1 0
0.12065498 -0.029999999 0.04437951 1 2 41 59 9 42 74 4 50 0 4 34 36 84 57 15 158 8 0 0 3 6 5 38 83 16 0 0 0 0 0 7 4 19 74 20 14 29 41 5 46 9 50 105 61 77 35 3 158 21 1 16 14 7 2 10 85 21 0 0 0 0 0 2 2 1 16 9 24 54 66 5 61 6 17 47 99 95 40 2 158 25 0 6 15 6 0 9 57 19 1 0 0 0 0 1 5 4 5 21 23 8 29 3 48 4 1 79 158 15 10 0 158 21 0 7 18 0 0 5 35 7 0 0 0 0 0 0 1 0
0.026157539 -0.029999999 0.041989949 4 0 0 9 24 0 0 1 121 6 0 0 0 0 0 2 160 30 0 0 0 0 0 0 160 15 0 1 6 1 0 0 7 0 0 4 9 0 0 4 124 8 0 0 0 0 0 5 160 20 0 0 0 0 0 8 160 8 0 0 8 1 0 3 5 0 0 0 1 0 0 4 120 6 0 0 0 0 0 12 160 27 0 0 0 0 0 16 160 19 0 0 3 1 0 2 0 0 0 0 0 0 2 7 72 8 0 0 0 0 0 9 160 31 0 0 0 0 0 2 160 11 0 0 3 0 0 2 1 0
0.089902654 -0.029999999 0.069633849 0 0 1 44 16 1 0 0 57 11 27 77 5 0 0 19 76 4 4 1 0 0 7 106 3 0 0 0 0 3 40 34 3 2 1 89 130 12 0 0 151 17 9 66 32 0 0 36 151 2 0 0 0 0 0 54 11 2 1 2 4 0 0 9 11 2 0 33 151 10 0 0 151 27 0 13 55 1 0 2 151 10 0 0 0 0 0 2 13 2 0 0 7 3 0 0 6 0 1 11 151 28 0 1 151 15 0 0 50 14 1 22 151 9 0 0 0 0 0 6 11 3 0 0 0 1 1 0 1 0
