# .PCD v0.7 - Point Cloud Data file format
VERSION 0.7
FIELDS x y z descriptor multiplicity pointId
SIZE 4 4 4 4 4 4
TYPE F F F F I I
COUNT 1 1 1 128 1 1
WIDTH 126
HEIGHT 1
VIEWPOINT 0 0 0 1 0 0 0
POINTS 126
DATA ascii
0.11233803 -0.039999999 0.054126546 99 31 2 6 30 10 0 12 52 29 2 13 123 34 0 5 114 62 6 8 34 6 3 5 34 5 1 5 69 64 25 4 63 52 5 7 15 5 4 21 64 25 6 22 123 80 20 19 123 13 1 6 17 17 35 49 17 3 1 22 62 54 52 10 103 28 0 0 1 7 8 40 90 36 6 13 45 123 84 41 123 38 3 18 51 76 42 26 22 9 3 32 47 50 32 11 66 46 0 0 0 0 0 0 93 88 11 23 60 20 2 0 77 25 5 20 99 27 4 25 33 10 12 60 20 17 13 22 1 0
0.036884617 -0.039999999 0.053172711 125 18 3 8 11 12 4 11 40 5 3 39 97 80 7 10 123 11 5 7 15 13 20 37 6 3 19 9 6 14 52 6 125 16 2 12 12 7 4 17 52 15 2 76 125 49 6 11 125 51 1 9 21 7 15 46 8 6 0 8 33 16 29 12 125 19 2 5 11 13 2 15 52 13 3 27 125 91 2 14 125 72 1 4 25 15 10 55 16 19 3 11 30 30 14 12 125 37 5 6 4 2 0 3 28 18 9 60 125 22 1 3 125 84 7 13 29 4 1 11 23 31 24 53 19 4 1 3 1 0
0.10030658 -0.039999999 0.047214676 46 5 1 8 134 37 8 19 58 25 9 10 134 9 4 21 17 5 9 9 21 11 19 20 65 17 0 3 30 11 2 8 62 12 2 39 134 4 1 6 134 7 0 18 134 5 3 29 43 3 1 8 53 41 10 19 69 4 0 7 44 14 2 12 36 29 5 39 134 3 0 3 134 41 4 14 134 5 3 31 37 23 10 17 35 23 20 48 64 6 0 3 41 51 14 19 27 6 1 9 134 54 10 25 69 25 2 2 93 21 12 83 17 15 10 23 20 6 25 77 44 6 2 34 61 17 5 15 1 0
0.029790808 -0.039999999 0.046535105 120 71 1 1 7 12 12 24 18 27 6 5 35 41 18 25 18 57 23 59 27 3 5 26 31 16 18 82 25 4 3 3 120 120 11 8 34 15 6 10 28 80 36 109 73 23 7 2 102 45 18 45 54 43 8 21 61 17 4 26 53 59 32 23 120 46 5 6 47 50 5 27 80 23 16 46 33 46 11 30 120 14 1 7 11 40 12 55 26 4 2 7 17 72 109 28 107 34 2 12 65 48 6 27 82 35 1 7 61 55 16 27 120 41 4 3 8 8 6 32 18 14 26 42 14 6 9 7 1 0
0.076653108 -0.039999999 0.044372059 4 14 45 4 1 9 121 32 11 9 24 20 10 31 95 34 34 9 5 13 56 17 12 21 11 4 10 11 56 11 19 25 0 20 135 9 1 7 67 15 14 21 135 90 11 24 46 9 126 72 66 30 29 36 13 19 11 4 13 13 31 97 31 7 8 6 44 3 1 22 65 15 33 16 57 21 10 72 120 24 135 75 70 12 5 26 22 35 12 20 113 47 16 56 21 6 4 14 45 20 3 3 11 4 6 25 75 62 10 11 19 7 10 42 96 43 6 6 25 4 0 26 126 25 1 3 22 0 1 0
0.076653108 -0.039999999 0.044372059 58 19 2 9 20 2 3 22 15 3 1 30 48 11 10 10 133 2 1 18 49 6 1 63 58 1 1 27 133 12 2 22 74 57 9 12 21 4 7 34 45 18 13 97 91 27 38 19 133 34 9 33 40 6 13 42 44 13 8 37 123 25 6 17 121 22 3 6 16 2 16 59 61 6 5 30 17 66 133 66 84 28 31 30 9 28 112 64 7 17 32 24 18 32 30 6 123 23 1 2 5 0 1 49 69 31 22 92 20 8 10 20 17 14 49 69 13 9 12 6 4 22 71 9 18 17 8 2 1 0
0.029728856 -0.039999999 0.04104685 98 29 2 2 3 3 10 28 49 37 40 14 22 15 12 16 19 28 16 11 14 18 62 59 5 19 14 35 37 22 39 6 50 8 3 27 24 11 32 77 29 60 66 113 64 2 1 17 111 113 63 55 14 2 4 16 11 7 31 113 54 3 1 1 44 15 14 76 40 13 10 12 25 8 10 109 78 15 69 73 113 36 20 107 41 12 26 73 21 5 16 113 42 10 49 33 23 34 41 29 15 19 24 16 14 25 17 9 13 17 109 78 12 3 10 24 77 49 37 44 27 10 2 9 57 30 61 68 1 0
0.029728856 -0.039999999 0.04104685 30 48 11 10 21 17 12 49 10 28 22 117 31 15 19 22 61 33 37 60 15 15 12 22 13 6 7 7 36 76 20 9 54 53 29 84 52 13 3 12 50 35 18 100 115 65 13 22 117 36 9 30 26 14 12 33 48 9 18 36 75 30 9 6 117 8 10 38 20 20 6 60 117 3 0 1 51 117 92 53 66 13 1 5 21 70 117 69 22 14 4 10 65 77 19 15 114 18 0 4 25 21 7 50 88 28 27 27 8 9 19 29 11 19 22 69 39 25 29 15 8 21 30 16 18 41 15 13 1 0
0.14685243 -0.039999999 0.032753959 9 59 10 6 27 133 8 1 89 115 3 2 7 67 35 37 134 134 32 2 0 1 3 17 6 134 134 31 44 75 0 0 24 117 40 3 7 27 9 7 108 33 16 5 10 31 63 103 49 46 73 58 55 10 25 43 1 35 134 49 5 0 0 0 69 60 3 0 0 8 12 40 130 45 37 13 6 2 5 52 5 7 22 42 55 3 2 3 0 0 1 5 4 0 0 0 29 39 23 10 0 0 5 23 10 36 25 1 0 0 0 3 0 0 3 0 0 0 0 0 0 0 0 0 0 0 0 0 1 0
0.059963875 -0.039999999 0.031938147 66 13 3 5 10 39 17 33 48 36 37 18 8 12 17 36 7 12 41 86 120 61 11 13 15 23 22 38 33 19 6 4 13 32 49 43 26 9 3 12 12 36 126 126 54 18 2 5 51 32 126 126 34 9 23 22 57 9 6 29 11 9 39 65 24 5 12 39 40 31 22 13 46 7 15 38 126 92 10 17 126 51 11 7 60 23 25 33 36 21 17 20 8 13 51 44 5 3 12 16 21 44 29 5 13 3 2 20 126 47 5 5 126 88 15 6 82 15 0 1 34 49 40 22 6 4 9 5 1 0
0.059963875 -0.039999999 0.031938147 13 21 26 40 18 4 3 4 9 39 35 43 24 17 24 4 49 45 27 6 2 9 12 34 5 9 15 44 17 37 48 10 3 32 132 33 3 4 22 4 14 44 132 73 8 20 52 6 132 132 54 18 2 7 12 44 33 18 6 10 16 38 55 36 20 8 56 6 1 2 132 74 12 9 53 21 29 52 132 34 132 128 29 9 18 23 43 45 45 79 108 52 16 18 10 18 36 25 8 8 13 5 28 36 14 16 5 19 55 60 32 17 10 47 13 11 33 60 48 10 20 42 47 28 5 3 17 26 1 0
0.059963875 -0.039999999 0.031938147 8 13 15 8 14 28 32 28 14 2 3 15 129 45 25 10 129 7 1 7 61 5 3 62 42 22 5 2 2 4 10 33 2 30 56 86 19 11 8 8 35 25 35 99 129 19 13 12 129 35 6 29 58 5 12 71 34 61 21 26 17 3 6 37 14 12 20 38 31 12 27 84 20 8 11 23 31 84 129 114 58 14 3 8 13 58 129 129 27 4 2 8 13 31 39 49 87 41 5 3 22 19 10 46 73 29 29 25 17 30 42 53 6 10 14 48 54 33 28 19 23 31 14 34 17 12 14 17 1 0
0.064142555 -0.039999999 0.031894539 10 23 34 39 25 4 1 5 11 31 114 117 63 21 2 5 44 47 141 73 16 9 15 28 30 6 11 40 7 12 28 50 22 2 5 31 32 61 26 24 57 4 6 52 141 49 6 22 141 23 6 9 46 18 26 66 25 17 13 17 4 24 54 59 2 6 15 36 43 32 9 3 44 7 4 58 141 24 2 3 141 80 31 10 40 2 1 4 32 39 43 31 10 12 17 7 4 4 5 17 31 22 6 5 18 7 3 51 141 30 1 6 90 61 20 5 26 4 23 60 64 54 19 2 5 8 35 20 1 0
0.064142555 -0.039999999 0.031894539 3 6 41 27 54 55 20 1 38 6 18 58 90 61 18 5 140 37 1 3 11 5 3 43 22 18 6 6 5 5 7 16 10 11 16 7 34 43 45 29 46 4 0 2 140 96 32 9 140 35 2 3 38 8 3 45 41 39 14 4 3 5 14 31 6 19 49 50 25 19 17 20 41 17 27 53 140 32 6 7 140 60 6 19 62 6 6 40 34 53 26 23 25 2 6 31 6 11 31 56 35 5 6 27 15 10 19 28 49 36 136 74 61 22 2 4 12 29 124 123 24 5 1 5 9 24 38 40 1 0
0.082287267 -0.039999999 0.025971923 3 8 38 52 11 43 109 13 39 67 43 7 2 21 47 93 11 38 73 5 6 68 36 26 0 36 55 2 1 48 49 1 35 27 69 113 89 27 7 5 113 101 61 15 3 7 23 51 15 50 72 15 9 41 53 15 3 38 69 9 6 23 21 1 36 6 3 20 38 113 113 42 113 41 29 3 3 40 102 80 11 26 101 55 15 47 29 6 14 30 29 23 21 13 10 4 23 75 69 1 0 14 22 8 2 36 80 11 1 25 45 14 6 43 24 7 7 76 67 4 7 11 6 11 9 34 51 6 1 0
0.022052847 -0.039999999 0.016253898 28 42 3 4 8 19 9 25 66 58 17 2 4 3 5 28 37 61 22 2 9 18 8 4 27 31 7 2 11 36 50 15 62 12 3 7 32 24 29 92 27 62 68 32 114 51 16 25 114 114 63 6 5 9 8 19 44 109 7 1 13 27 22 10 44 71 28 7 16 9 10 15 25 50 54 18 94 114 26 11 114 77 25 10 11 54 30 45 49 90 17 3 4 23 23 14 14 104 70 22 6 9 5 1 4 75 114 30 12 9 2 1 25 80 69 77 16 6 2 4 76 114 37 16 7 2 3 2 1 0
0.079248808 -0.039999999 0.014913388 9 1 0 13 66 37 25 2 117 56 8 7 2 3 17 6 57 44 44 39 3 1 16 59 88 47 19 1 1 2 13 55 1 0 0 6 17 85 140 9 63 20 1 1 55 91 99 10 140 24 1 1 7 4 22 114 47 4 2 10 40 16 34 72 3 2 4 11 44 34 36 7 53 7 1 24 140 38 12 3 140 55 0 3 21 2 0 33 70 24 0 5 33 24 3 9 10 15 29 14 37 8 5 5 33 7 1 17 140 30 1 1 140 52 0 2 19 3 0 29 62 18 1 9 29 3 1 32 1 0
0.088115007 -0.039999999 0.01478421 6 4 11 14 49 15 12 6 51 10 1 30 158 10 2 2 158 68 0 2 10 1 0 24 47 22 0 8 25 13 2 13 23 34 36 14 43 12 1 3 66 6 1 9 158 54 0 4 158 27 1 0 18 4 0 57 54 14 5 15 51 6 2 34 28 34 5 8 26 18 2 4 69 12 2 23 158 16 0 1 158 29 2 1 27 2 0 12 39 27 10 12 29 4 1 9 4 8 2 8 32 42 10 2 49 5 1 24 158 2 2 1 158 35 2 2 18 0 0 5 33 26 6 10 20 1 0 2 1 0
0.099769309 -0.039999999 0.014601891 3 6 2 10 47 41 14 3 65 18 1 7 139 16 1 0 139 99 2 1 10 1 0 1 36 23 3 7 23 9 2 3 2 1 9 58 52 14 2 3 47 9 2 6 139 28 0 4 139 57 1 1 25 3 0 19 100 31 5 2 20 17 4 15 6 2 4 11 48 37 5 7 26 5 3 8 139 67 1 8 139 96 15 3 33 15 0 17 72 85 29 1 8 4 0 22 2 4 3 4 31 26 8 3 4 3 1 33 139 22 4 0 139 43 1 13 47 5 0 15 112 9 2 4 6 0 0 70 1 0
0.038363352 -0.039999999 0.012961277 64 29 2 6 99 31 1 6 83 53 10 29 32 23 3 9 118 99 6 2 2 2 1 10 30 20 7 7 1 3 13 19 58 6 0 8 102 57 30 47 88 16 1 7 63 73 35 38 118 58 1 0 11 11 1 12 64 58 7 0 0 1 4 19 79 21 2 3 27 57 49 79 47 9 3 32 118 118 58 54 118 10 0 5 37 29 7 60 74 24 3 0 1 5 13 36 85 57 15 19 20 5 2 2 44 30 9 66 113 43 3 3 118 61 4 22 48 14 5 25 39 35 11 15 18 5 6 13 1 0
0.043916613 -0.039999999 0.012527504 30 2 0 1 31 45 58 67 26 2 0 6 70 95 56 40 116 10 0 1 17 17 2 33 54 24 1 0 0 1 4 27 99 28 8 16 23 11 10 24 41 12 8 87 116 48 10 13 116 4 0 12 37 13 11 85 60 19 2 3 5 6 13 31 100 63 31 24 12 5 2 13 51 23 9 102 116 36 3 6 116 95 11 33 32 6 3 17 44 33 12 24 16 4 4 16 100 102 22 10 13 2 1 16 21 30 18 67 116 5 2 6 116 89 10 11 19 0 0 18 83 22 10 6 2 1 1 46 1 0
0.027932627 -0.039999999 0.0078148991 20 11 1 10 117 34 1 10 48 20 7 42 89 15 3 14 130 19 3 14 33 4 3 50 14 3 0 27 130 11 3 12 8 1 0 24 95 47 44 33 48 3 0 5 130 56 17 36 130 37 5 15 63 9 2 11 15 7 3 45 130 6 0 1 13 5 4 11 40 48 33 10 11 1 0 2 90 125 38 15 130 22 2 8 41 44 28 58 7 4 2 20 130 4 1 3 58 12 3 11 20 27 9 29 2 1 0 9 67 62 21 5 47 24 1 12 67 22 4 12 4 3 1 17 130 10 0 2 1 0
0.036489028 -0.039999999 0.0076449472 22 7 7 91 44 0 0 8 97 24 10 29 28 5 12 98 20 4 6 37 99 15 17 25 4 0 0 38 109 15 9 7 40 14 2 62 85 2 0 12 84 76 109 63 27 2 1 18 97 41 63 61 72 11 0 5 7 2 0 39 109 43 0 1 29 9 2 31 95 11 8 24 75 12 15 79 66 4 2 43 109 15 7 22 45 10 8 94 4 1 0 30 109 29 1 2 2 0 0 18 66 25 25 28 109 2 1 23 82 9 4 46 100 5 2 74 60 2 3 44 0 0 0 51 50 0 0 0 1 0
0.0035181958 -0.039999999 0.056806423 44 55 0 0 0 11 74 36 105 32 0 0 2 13 49 133 13 0 1 2 94 136 36 27 0 0 3 23 81 57 0 0 96 130 0 0 0 0 7 17 136 62 9 3 3 16 64 136 22 8 16 18 101 136 85 56 0 0 0 0 41 114 0 0 25 7 0 0 0 0 0 3 136 51 74 17 2 2 2 20 15 26 136 49 36 26 3 4 0 0 0 0 4 7 0 0 0 0 0 0 0 0 0 0 0 0 3 1 0 0 0 0 0 1 7 2 0 0 0 0 0 0 0 0 0 0 0 0 1 0
0.046668854 -0.039999999 0.056485772 2 0 0 0 0 0 0 0 127 9 1 2 4 2 0 31 85 10 3 28 127 30 3 24 88 28 4 5 29 8 4 62 3 0 0 0 0 0 0 2 127 11 2 5 14 11 8 115 77 11 4 48 127 47 10 42 127 8 4 10 14 3 2 118 8 1 0 0 0 0 0 0 127 30 5 19 21 9 2 21 90 11 6 81 127 39 5 26 120 20 34 13 6 6 12 38 8 0 0 0 0 0 0 2 127 3 1 9 25 11 2 36 81 6 1 33 108 40 6 32 69 3 2 1 7 16 28 41 1 0
0.055383388 -0.039999999 0.052007511 8 1 9 57 10 14 26 44 6 1 2 122 104 6 4 9 117 27 6 26 50 6 2 36 17 10 6 71 100 5 1 6 9 4 53 74 17 16 11 13 27 8 6 96 122 37 6 6 122 29 5 29 69 8 4 37 7 2 1 39 122 8 1 4 63 4 4 1 22 29 13 38 40 2 0 3 122 111 8 16 122 18 3 37 74 17 3 23 4 2 1 58 122 1 0 0 34 4 4 15 15 9 8 31 18 4 5 44 122 53 3 11 58 14 3 21 68 37 6 31 0 0 1 22 95 25 0 0 1 0
0.055383388 -0.039999999 0.052007511 49 1 0 0 0 0 0 40 100 17 4 34 32 5 4 56 122 16 4 32 30 5 12 49 35 2 10 21 15 1 18 56 115 0 0 1 4 1 1 104 59 4 2 69 122 7 5 74 122 28 6 35 38 1 0 11 58 16 11 54 45 1 0 3 121 3 3 19 17 4 7 115 43 4 5 88 122 10 11 47 122 24 8 9 17 4 19 99 17 17 13 31 17 13 52 21 52 3 4 38 64 10 10 65 58 3 1 43 69 5 5 76 33 3 8 17 1 0 28 122 4 28 23 16 4 11 52 37 1 0
0.13375451 -0.039999999 0.037326712 44 15 2 2 5 1 0 0 66 3 0 1 44 7 0 3 152 4 0 0 81 8 0 7 26 3 0 0 152 18 0 1 76 25 2 2 2 0 0 0 80 8 2 13 38 2 0 3 152 14 0 0 91 7 0 9 23 4 0 0 152 22 0 1 63 19 4 6 5 0 0 7 92 14 15 27 16 0 0 4 152 8 0 0 74 9 0 22 20 1 0 0 152 27 0 3 39 6 0 3 15 2 1 8 90 7 3 7 24 5 5 14 152 12 0 0 53 4 0 10 18 2 0 0 152 17 0 2 1 0
0.055142049 -0.039999999 0.033561889 9 29 63 49 16 5 0 1 70 61 16 11 7 13 9 17 6 5 11 60 33 56 43 3 36 29 16 16 6 16 15 4 28 45 121 14 5 27 96 15 121 121 37 6 4 17 27 54 27 11 20 47 108 77 53 18 26 24 10 35 51 36 12 3 21 11 2 2 59 86 96 22 121 121 61 12 25 41 22 25 15 47 121 109 37 13 42 37 4 14 36 38 35 39 27 10 24 15 15 33 26 49 13 11 53 13 6 31 38 39 17 19 89 22 9 21 24 10 57 87 7 9 7 37 50 41 42 14 1 0
0.070611179 -0.039999999 0.031955112 47 18 24 24 31 22 9 17 7 9 16 64 86 29 6 3 69 35 22 46 42 20 6 11 17 10 40 33 29 58 37 14 11 18 106 28 30 17 5 5 24 18 97 130 97 20 2 2 130 78 11 53 27 13 9 15 33 18 6 8 17 75 68 12 20 14 12 15 62 51 21 10 51 3 15 58 130 96 8 30 130 21 2 9 13 5 4 120 28 16 14 21 13 11 27 25 2 5 38 46 31 20 21 9 76 2 10 53 130 20 6 31 130 26 7 3 7 1 3 68 19 33 11 9 1 4 28 22 1 0
0.084377803 -0.039999999 0.014690517 8 4 2 5 19 51 99 32 37 6 0 1 45 107 96 11 153 8 3 1 10 10 9 116 33 13 18 14 49 20 17 50 29 27 15 4 17 18 15 14 40 7 5 25 153 44 7 3 153 41 1 6 38 5 0 30 58 13 1 9 45 32 18 17 18 32 37 8 11 16 5 5 48 17 10 18 153 26 0 3 153 16 1 2 45 7 0 36 54 14 4 15 48 5 1 13 13 10 2 3 25 51 5 6 38 8 3 29 129 11 1 0 153 28 1 5 31 0 0 1 28 18 7 21 25 1 0 0 1 0
0.1068188 -0.039999999 0.014587455 2 2 1 24 57 20 0 0 56 7 0 5 142 33 0 7 142 76 1 1 8 3 0 14 42 39 2 2 25 14 3 8 9 5 1 3 63 31 2 2 40 13 2 30 142 25 0 1 142 68 2 6 18 2 0 48 83 17 4 30 16 4 2 53 9 29 18 8 55 12 2 3 37 3 1 11 142 62 0 2 142 72 20 4 25 11 0 22 51 33 66 117 19 0 0 13 29 17 8 4 9 9 8 16 13 3 1 3 140 75 9 3 122 60 19 10 49 12 0 0 31 23 62 56 17 0 0 0 1 0
0.048465785 -0.039999999 0.012190537 119 44 1 0 0 0 0 33 78 26 7 37 17 6 14 27 17 2 4 76 78 23 14 59 42 0 0 0 4 3 7 119 119 79 3 2 0 0 0 16 101 31 19 119 32 0 0 21 119 30 12 78 20 0 3 63 52 18 6 3 0 1 10 65 105 57 14 5 1 6 21 12 66 46 42 119 23 0 0 18 119 35 5 19 4 0 0 102 53 16 5 7 7 3 5 79 9 8 11 22 41 28 24 7 99 11 23 15 6 1 0 50 119 1 1 1 0 1 3 119 22 2 6 14 6 6 18 37 1 0
0.048465785 -0.039999999 0.012190537 0 0 1 3 119 114 6 0 14 7 1 0 65 74 12 25 12 11 17 21 10 60 39 23 0 0 3 24 10 47 7 0 3 0 2 8 119 89 2 3 53 4 0 1 119 119 9 14 119 9 0 0 24 107 52 46 2 0 0 0 32 119 53 1 8 6 2 9 92 38 12 6 23 2 0 3 72 119 33 13 119 23 0 0 33 66 11 27 12 2 0 2 42 119 43 4 1 1 3 8 19 29 15 4 4 1 1 26 119 31 4 3 85 65 18 15 65 13 2 6 16 29 36 62 33 20 3 3 1 0
0.11707091 -0.039999999 0.010672837 49 6 1 14 64 14 3 16 129 8 0 8 47 9 2 36 32 7 4 7 22 9 4 17 2 2 1 4 129 25 0 1 68 1 0 3 99 13 1 17 129 17 1 2 70 18 5 73 43 10 3 9 65 63 9 26 9 4 2 22 129 37 2 5 37 1 0 1 109 39 46 34 129 79 8 3 72 13 1 13 37 38 19 36 67 23 5 6 2 2 2 58 129 27 3 1 6 1 0 31 129 44 37 23 129 32 0 8 84 6 1 14 65 11 2 6 14 38 18 13 0 0 0 10 103 52 10 0 1 0
0.14061579 -0.039999999 0.035941016 79 41 22 2 0 0 0 1 92 32 7 10 6 0 0 1 159 10 1 2 93 11 0 8 30 9 0 1 159 23 0 2 113 8 1 1 1 1 3 26 123 25 14 15 9 2 2 9 159 17 3 2 103 13 2 16 34 3 0 0 159 35 1 9 49 1 0 0 0 1 9 66 75 6 0 2 6 4 25 73 159 51 8 9 80 3 4 35 26 17 5 20 159 10 0 2 17 0 0 0 0 0 1 19 13 5 0 1 0 0 3 19 33 39 5 6 12 0 0 2 3 6 3 13 58 0 0 0 1 0
0.10922083 -0.039999999 0.019486809 18 3 0 12 124 17 0 1 129 58 0 2 25 6 0 4 69 26 2 2 12 15 6 14 45 20 3 2 1 3 8 34 14 5 1 9 129 26 0 0 129 53 4 9 44 6 0 23 104 27 43 79 2 1 2 22 27 122 46 17 1 1 1 5 13 11 5 5 123 45 3 4 129 92 38 11 58 25 1 3 58 65 129 89 2 1 1 2 85 86 31 11 3 7 3 3 21 16 2 11 76 34 4 7 38 25 8 13 93 20 0 0 93 39 18 13 15 1 1 1 102 35 7 7 9 6 3 2 1 0
0.066777408 -0.039999999 0.018328143 24 18 7 7 16 6 17 28 142 29 11 4 7 1 1 23 142 14 6 10 4 7 10 29 4 6 47 28 7 9 20 18 35 4 0 16 65 12 6 16 142 32 0 5 18 2 0 78 125 36 12 15 25 10 3 50 13 7 35 58 103 9 1 2 29 4 0 7 56 59 21 18 142 130 1 2 11 17 11 31 97 141 23 11 27 2 0 16 15 11 8 27 135 22 6 20 14 2 1 3 21 69 46 31 125 7 0 2 18 40 23 79 70 26 18 4 9 15 14 49 10 9 12 4 19 13 22 40 1 0
0.062165223 -0.039999999 0.01117572 19 45 1 0 0 0 3 9 55 154 56 17 1 1 5 12 161 78 29 12 0 0 0 7 69 6 5 8 7 12 14 18 14 2 0 0 1 1 9 33 70 26 11 13 48 15 19 40 161 59 6 3 8 1 0 22 98 27 12 26 13 9 8 18 10 6 0 1 2 2 4 15 69 13 1 15 102 27 6 16 161 117 3 2 14 3 0 39 72 67 17 12 35 10 2 23 12 2 0 0 1 2 2 18 27 6 0 3 41 83 42 28 161 108 2 0 7 29 24 36 72 92 22 5 11 4 1 19 1 0
0.072475642 -0.039999999 0.01198605 0 0 0 0 0 0 4 3 52 31 2 2 16 5 25 35 163 42 5 1 5 1 2 71 81 5 25 25 8 6 17 27 1 0 0 0 1 1 6 5 87 5 0 7 63 39 24 24 163 83 2 4 13 6 3 81 63 31 22 65 102 3 1 13 7 0 0 0 0 1 18 27 44 3 1 6 28 126 97 67 163 67 4 2 8 30 28 136 37 37 14 22 54 11 24 48 17 1 0 1 2 1 1 17 61 4 2 36 54 13 6 26 163 11 1 6 11 4 9 69 29 8 1 0 0 1 21 43 1 0
0.065897509 -0.039999999 0.020870987 21 63 0 0 0 0 2 3 159 149 0 0 0 0 2 22 139 11 5 11 8 7 8 24 0 2 9 19 18 18 12 4 28 6 0 0 3 12 9 7 159 36 1 1 2 5 4 43 159 16 33 74 30 2 4 19 24 11 48 48 15 8 4 7 12 0 0 0 3 39 58 10 159 58 2 1 2 24 38 68 107 52 11 39 56 8 11 39 41 5 3 23 33 6 11 75 6 0 0 5 9 13 26 11 152 6 0 5 7 13 18 75 68 9 1 1 2 2 12 81 4 1 0 32 71 2 7 40 1 0
0.13573287 -0.039999999 0.02316552 0 1 9 7 0 0 0 0 81 138 34 21 0 0 0 0 147 148 4 11 53 4 0 0 3 6 10 47 119 13 2 0 0 0 16 19 3 0 0 0 58 124 71 107 29 5 1 5 148 148 17 18 57 1 0 12 24 12 7 62 148 1 0 1 0 0 3 3 6 2 0 1 62 12 7 18 52 23 5 26 148 24 2 3 48 3 2 64 25 1 0 11 148 1 0 4 0 0 0 0 0 0 0 0 1 0 0 0 0 0 0 0 4 0 0 0 1 0 0 1 0 0 0 0 3 0 0 0 1 0
0.027114945 -0.034765314 0.059999999 74 55 3 6 26 0 0 0 154 62 0 1 5 2 2 6 83 73 3 3 10 4 2 3 103 49 0 0 0 3 24 10 99 16 0 3 42 8 1 4 154 43 0 0 6 9 2 12 104 38 1 3 29 59 7 16 154 61 0 0 0 2 1 13 89 0 0 1 43 12 0 8 154 3 0 0 1 3 1 24 106 3 0 0 8 51 23 40 133 13 0 0 0 3 7 48 69 0 0 5 37 2 0 34 154 11 0 0 0 0 0 60 73 42 1 0 0 1 3 11 54 26 0 0 0 0 1 7 1 0
0.031360887 -0.03350316 0.059999999 0 1 8 115 67 0 0 0 126 22 11 82 40 0 0 7 93 8 9 7 0 0 0 11 0 0 10 32 6 0 0 0 8 2 4 114 126 0 0 1 126 22 6 43 49 0 0 10 75 17 64 42 0 0 0 1 0 0 82 89 0 0 0 0 17 0 0 56 126 3 1 9 126 15 16 30 35 2 1 40 19 8 83 126 1 0 0 0 0 0 94 126 2 1 3 6 17 4 3 54 107 0 0 2 47 15 32 86 9 0 0 6 2 2 48 114 3 1 6 14 1 1 18 49 6 3 35 37 1 0
0.084976248 -0.032813631 0.059999999 2 10 145 37 7 0 1 2 5 26 145 3 0 0 2 4 2 16 145 19 0 1 3 1 3 9 77 23 0 0 0 0 25 21 64 37 82 0 0 1 141 34 60 1 6 10 27 72 22 35 35 11 65 43 35 20 18 48 15 15 3 0 0 0 45 19 3 15 122 0 0 0 145 21 1 4 30 2 2 12 43 24 4 48 145 7 2 4 11 55 47 27 8 0 0 0 50 5 0 13 96 0 0 1 145 7 0 2 33 0 0 10 30 7 7 24 145 5 1 1 7 19 41 20 15 3 2 0 1 0
0.021405121 -0.031886313 0.059999999 57 15 6 7 1 0 0 3 25 52 12 10 8 11 10 14 1 3 4 10 46 55 23 3 1 0 0 0 11 33 14 3 63 19 2 12 10 0 0 1 145 14 2 6 5 4 47 118 27 3 2 1 5 126 145 54 2 0 0 0 1 145 145 3 71 32 1 3 12 1 0 1 145 55 1 1 6 1 6 25 106 44 37 1 1 36 64 18 2 11 18 1 0 120 97 1 73 20 0 0 2 2 1 2 145 41 0 0 1 1 1 3 130 26 5 0 0 3 8 5 10 7 6 0 0 3 16 18 1 0
0.069423102 -0.030503757 0.059999999 2 0 0 0 6 101 53 35 0 0 0 0 6 57 27 22 0 1 1 2 2 3 103 45 1 1 1 1 1 34 95 5 22 5 1 56 103 65 11 24 67 5 3 37 51 43 23 112 18 15 21 66 93 5 68 89 68 62 22 18 14 52 52 4 51 14 1 25 118 35 2 2 118 48 7 15 64 22 4 21 45 29 11 27 118 55 12 14 118 26 9 19 32 17 13 31 19 50 61 27 50 42 2 1 19 61 50 58 43 31 4 2 3 74 118 10 22 27 12 4 17 5 83 68 3 9 14 18 1 0
0.069423102 -0.030503757 0.059999999 2 9 14 14 10 5 85 68 17 23 9 2 3 68 116 12 51 45 6 2 20 47 47 56 49 48 2 0 25 58 49 18 30 22 17 31 116 29 10 21 116 70 12 11 44 35 14 17 65 26 4 17 116 57 7 15 116 41 2 1 47 19 1 23 17 45 41 5 75 74 22 17 109 7 54 87 20 18 21 60 49 43 23 115 70 7 2 27 95 85 18 25 16 5 1 41 0 40 98 8 1 3 2 1 2 2 105 57 0 1 2 3 3 40 29 30 0 0 0 0 2 87 55 24 2 0 0 0 1 0
0.067947187 -0.029990429 0.059999999 0 0 0 4 24 101 40 14 0 1 1 2 3 14 107 41 1 2 1 1 1 60 107 3 6 0 0 0 0 37 33 42 62 4 2 48 91 28 15 44 42 15 12 53 104 14 64 68 105 47 15 24 38 76 54 13 84 1 0 5 54 85 22 45 63 45 29 37 80 30 2 7 42 62 68 26 107 37 11 15 107 19 63 76 41 19 13 39 74 51 37 87 56 5 0 1 0 17 64 71 13 2 0 0 0 52 107 12 4 3 1 1 2 6 107 75 1 2 3 3 3 38 44 36 0 0 5 5 1 0
0.067947187 -0.029990429 0.059999999 0 0 5 8 1 21 34 40 1 2 3 2 1 5 107 78 5 3 1 1 0 42 107 19 22 7 0 0 1 15 66 85 52 4 0 0 50 61 43 99 39 22 14 33 107 24 60 81 107 43 11 12 46 57 69 22 88 39 2 6 70 40 21 27 56 75 18 31 99 8 0 6 39 73 54 12 103 57 14 21 106 15 62 73 39 17 12 44 85 41 19 48 55 5 2 33 0 32 36 60 17 0 0 0 1 58 107 7 2 2 1 1 2 8 107 48 0 1 1 2 11 80 43 15 0 0 0 1 1 0
0.062486634 -0.030393247 0.059999999 37 2 2 3 5 16 35 58 30 1 0 0 37 73 36 32 84 2 0 0 19 38 65 93 23 0 0 0 48 72 33 42 120 18 0 0 17 13 4 15 95 6 0 0 120 102 9 14 120 17 0 0 67 26 7 32 73 19 0 0 120 36 1 8 120 70 5 0 7 5 0 1 49 65 61 10 34 100 24 14 95 17 96 32 29 24 22 46 14 26 33 66 120 11 0 1 7 42 9 1 8 1 1 0 2 46 112 14 1 1 1 0 1 5 120 28 1 1 1 1 0 2 36 41 8 0 0 0 1 0
0.079156935 -0.029567974 0.059999999 59 18 15 8 5 7 5 12 23 2 2 6 107 42 7 9 84 4 3 3 24 8 27 59 6 6 6 10 25 21 63 26 138 20 5 3 13 2 1 4 66 4 0 10 138 14 1 4 138 9 0 5 58 6 2 19 31 9 7 29 138 13 3 6 138 39 7 4 13 7 0 1 61 16 14 32 138 24 0 4 138 5 1 5 49 12 0 15 33 2 2 9 134 52 14 8 30 53 46 10 4 1 0 0 32 23 88 58 21 1 0 2 138 19 6 11 15 1 0 4 24 3 11 43 88 8 2 1 1 0
0.079156935 -0.029567974 0.059999999 80 11 4 3 17 2 15 48 19 1 0 10 138 12 5 10 18 1 0 4 40 21 84 53 3 0 0 1 26 52 49 8 138 45 14 9 30 1 1 13 51 10 0 27 138 2 1 6 138 17 0 5 61 14 16 36 14 6 0 2 138 34 9 6 138 11 4 9 33 8 8 37 58 5 2 30 138 3 0 8 138 9 1 5 68 1 0 18 11 1 0 5 138 12 5 3 21 24 67 26 7 4 5 8 29 7 23 59 76 5 4 4 111 39 7 12 24 2 2 7 3 4 4 14 64 17 17 7 1 0
0.080395527 -0.028440289 0.059999999 4 20 36 18 22 1 0 0 129 18 22 10 12 4 3 16 72 2 0 15 129 20 4 17 108 1 1 7 39 11 22 51 10 5 17 14 30 62 47 1 129 24 7 8 31 13 2 5 124 7 4 28 129 13 0 13 129 1 0 12 84 11 0 25 4 7 99 54 20 24 18 1 83 88 77 27 15 5 1 2 112 31 94 72 56 4 0 11 129 6 3 20 55 9 0 16 0 1 10 2 0 53 72 1 1 6 16 1 0 29 39 3 77 22 21 2 0 3 9 21 79 47 50 47 28 0 0 5 1 0
0.019866288 -0.02752018 0.059999999 84 52 31 0 0 0 0 40 122 74 27 1 1 1 1 13 40 7 2 40 28 10 8 13 4 7 3 10 3 2 18 15 101 118 50 1 2 1 0 22 137 41 12 0 1 3 3 61 65 5 2 9 13 47 50 33 0 0 3 7 3 8 49 20 137 19 12 7 4 1 0 63 137 137 21 7 1 0 0 26 67 76 24 54 11 8 3 3 0 11 37 26 6 2 2 0 115 8 10 50 9 0 0 59 78 137 38 65 10 0 0 1 99 137 4 8 9 19 1 0 4 16 11 12 13 25 3 0 1 0
0.017445602 -0.027026741 0.059999999 126 24 0 0 0 0 0 16 126 35 14 0 0 0 0 32 82 68 58 1 0 0 0 6 71 39 7 6 10 5 4 4 105 73 4 0 0 0 1 16 49 126 87 1 2 3 2 8 126 96 63 1 0 0 0 6 126 41 2 1 1 6 10 13 83 28 8 1 0 0 1 21 86 35 35 18 13 7 3 15 126 46 13 5 2 0 0 23 103 126 19 7 1 0 0 2 17 35 11 0 0 0 0 0 97 28 30 5 0 0 0 18 126 16 10 34 17 0 0 23 15 126 33 42 16 0 0 0 1 0
0.077907473 -0.026624057 0.059999999 82 27 25 27 87 7 0 1 124 3 4 15 74 11 0 20 61 3 5 18 124 48 17 17 77 10 24 45 18 11 18 54 27 35 99 33 9 1 2 6 124 34 25 26 22 1 0 17 54 11 38 110 124 11 4 5 3 4 104 87 15 2 5 9 14 3 3 0 0 29 55 13 85 81 71 16 3 9 16 10 8 20 79 124 54 3 6 1 2 1 7 19 11 1 3 4 0 0 0 0 1 68 107 2 1 3 9 2 4 88 112 2 1 1 8 7 1 36 124 6 1 0 0 1 1 37 58 3 1 0
0.027247949 -0.02655392 0.059999999 0 0 1 5 62 74 2 0 118 13 0 0 21 40 4 9 141 5 0 0 1 1 1 73 41 1 3 10 7 5 2 21 0 0 0 0 14 132 41 0 105 5 0 0 15 141 21 20 141 78 5 1 2 6 5 57 25 28 9 5 13 14 3 8 0 0 5 12 12 126 71 0 27 2 3 8 26 141 49 44 141 27 1 0 0 8 18 124 45 18 3 2 2 1 0 13 0 0 41 94 14 12 2 0 25 30 51 60 16 14 5 6 127 58 9 0 0 0 2 18 21 19 27 3 1 0 0 7 1 0
0.032905128 -0.021931903 0.059999999 4 22 34 119 102 0 0 0 60 128 34 22 11 0 1 4 33 128 93 0 0 1 2 6 15 63 53 1 2 4 2 3 23 5 28 123 55 20 1 7 128 41 5 12 7 1 18 91 40 36 21 0 0 0 86 101 32 27 12 6 2 0 9 56 21 1 0 2 36 128 15 6 128 32 0 0 4 19 6 24 117 14 1 1 2 1 23 28 7 5 9 15 19 12 10 12 2 0 0 0 30 125 15 2 128 17 0 0 13 50 6 13 125 19 2 3 5 8 9 10 18 8 2 1 5 13 26 28 1 0
0.085400745 -0.02017848 0.059999999 5 119 33 0 6 40 53 5 24 119 7 1 3 3 2 2 12 8 0 0 0 3 6 17 2 1 0 0 8 25 17 8 4 22 9 3 75 119 38 3 119 102 5 1 27 54 15 35 49 27 6 0 1 1 2 9 6 8 1 1 5 7 1 2 20 107 92 52 27 48 6 4 35 54 84 119 21 40 20 28 19 119 75 9 1 1 2 6 20 48 3 0 0 0 0 3 47 49 39 119 12 1 6 52 56 71 66 119 6 3 9 27 61 119 43 58 17 9 11 26 89 102 27 6 0 0 0 3 1 0
0.085400745 -0.02017848 0.059999999 96 105 65 9 5 1 6 18 19 12 2 118 113 16 3 8 118 1 2 40 44 10 3 78 36 2 2 2 0 0 0 12 102 109 106 11 9 2 20 51 39 51 50 65 75 31 53 56 52 1 0 9 6 8 46 118 7 0 0 0 2 10 14 13 62 92 90 4 4 20 34 82 118 76 40 3 3 14 19 48 59 3 1 1 0 1 9 28 5 0 1 7 6 6 12 6 48 53 57 6 4 48 50 65 118 10 13 3 2 4 7 118 25 0 0 0 0 1 5 25 1 0 1 16 22 3 2 2 1 0
0.073462099 -0.018791307 0.059999999 42 19 18 52 1 5 39 84 71 87 8 5 2 3 23 32 17 63 14 2 9 15 3 0 0 2 1 1 34 57 3 0 30 19 10 27 14 84 62 34 31 54 60 131 22 11 9 4 131 131 51 24 3 1 0 3 22 8 1 1 14 30 1 0 3 15 62 90 28 33 21 30 53 6 11 91 109 76 24 22 131 25 16 16 16 8 1 33 31 19 45 16 2 5 0 1 0 0 3 5 31 50 75 68 38 8 1 14 131 43 22 26 131 47 52 54 27 3 5 20 39 43 79 52 1 0 10 48 1 0
0.057829622 -0.01873422 0.059999999 51 61 7 0 0 2 17 21 32 14 25 26 1 0 1 6 1 4 35 54 2 1 1 1 18 25 15 8 0 0 1 4 35 6 29 76 1 2 16 40 25 26 146 146 1 0 0 4 121 72 88 32 0 0 6 27 28 4 2 2 0 0 22 53 2 0 45 146 18 31 26 10 94 12 36 140 31 43 7 6 146 22 8 4 1 1 1 35 41 0 0 0 0 0 5 24 0 0 5 8 21 77 88 48 75 0 0 1 94 146 18 13 146 2 0 0 4 5 1 28 30 2 3 1 0 0 0 9 1 0
0.029219918 -0.018553147 0.059999999 0 0 0 0 12 54 59 2 34 0 0 0 0 26 69 54 144 1 0 1 0 2 10 130 21 1 1 1 5 13 17 13 0 0 0 2 29 81 34 1 63 12 8 13 5 27 42 21 144 19 2 1 0 0 5 40 35 2 0 1 9 12 17 22 11 8 9 36 15 89 52 2 38 19 39 32 12 89 59 18 144 40 2 0 0 3 11 31 46 18 3 13 16 1 1 11 14 24 73 144 52 2 0 0 102 144 90 102 19 3 1 3 144 86 6 0 0 1 1 40 35 17 7 9 18 16 3 14 1 0
0.018745804 -0.01841365 0.059999999 59 16 9 4 2 2 11 63 18 1 0 20 77 16 24 42 67 0 0 14 50 5 3 63 8 0 3 77 113 3 3 19 91 129 25 7 2 0 0 12 44 48 40 110 70 1 1 8 129 7 2 21 80 8 1 42 7 0 0 28 129 30 7 8 40 119 18 2 6 6 9 33 86 85 60 34 2 0 0 4 129 19 3 5 65 7 0 8 9 1 0 2 129 54 15 6 25 12 8 26 30 11 7 21 123 18 1 1 2 0 0 21 129 24 2 12 28 1 0 7 8 3 1 15 77 12 6 18 1 0
0.08054433 -0.017798007 0.059999999 31 18 56 17 3 12 35 15 6 3 105 35 63 52 24 3 40 21 117 12 16 17 26 35 2 93 67 12 10 27 19 3 117 13 9 34 13 8 18 18 27 4 7 117 117 44 12 3 117 23 2 35 53 18 16 32 17 10 12 72 85 36 22 14 104 27 17 19 18 18 8 10 20 1 9 44 100 102 27 13 117 6 1 14 45 48 26 74 44 5 2 27 55 75 38 27 11 4 7 3 1 5 83 27 1 0 4 4 13 18 117 27 17 0 0 0 2 21 83 89 3 1 0 0 1 68 64 10 1 0
0.077065207 -0.01773819 0.059999999 25 11 53 11 3 10 38 37 9 13 87 28 92 60 29 2 101 63 76 13 25 5 13 21 9 2 53 17 21 35 52 12 62 28 65 29 4 9 15 24 30 2 43 129 129 35 10 2 129 12 4 24 46 4 5 20 36 5 18 91 56 23 20 11 68 14 15 16 6 24 33 18 26 0 9 47 126 90 32 8 129 26 8 8 32 18 16 33 20 10 22 39 59 54 7 1 12 2 1 5 3 19 71 25 2 0 1 12 30 52 129 13 25 5 3 1 4 11 129 64 2 2 10 5 7 12 101 8 1 0
0.062551111 -0.017767908 0.059999999 5 5 63 21 4 6 31 63 11 20 91 18 64 47 25 8 137 89 38 6 19 3 0 0 20 7 12 63 99 0 0 0 27 4 36 37 12 9 15 70 30 4 30 116 136 37 11 4 137 26 1 16 40 3 0 0 38 5 0 19 137 0 0 0 7 0 14 36 39 36 8 12 24 1 13 50 96 72 24 8 137 16 3 7 25 12 11 27 33 8 3 28 137 0 0 0 0 0 3 9 16 48 40 1 2 0 3 10 15 42 137 8 43 10 19 10 11 43 58 30 5 5 22 51 75 19 34 1 1 0
0.017614502 -0.017477304 0.059999999 25 80 46 5 1 1 2 8 61 101 13 0 2 7 11 25 9 47 63 24 3 16 50 35 3 7 41 29 2 18 35 8 43 52 19 2 0 1 33 25 127 77 4 1 0 1 16 81 39 7 18 61 10 17 82 99 1 0 4 57 26 30 50 20 22 4 8 18 13 16 101 55 127 80 33 7 4 3 12 39 46 39 96 86 2 0 5 90 2 0 14 90 7 1 39 121 28 13 31 23 7 2 6 46 43 14 4 2 2 0 8 127 46 7 7 42 13 0 2 127 2 0 7 127 55 5 7 37 1 0
0.079448521 -0.016602209 0.059999999 33 53 24 45 62 1 1 10 58 61 53 42 48 0 2 12 32 30 29 9 44 14 22 19 35 23 35 29 84 9 2 6 49 23 15 22 112 12 3 51 112 35 5 12 101 7 5 98 48 24 15 13 105 10 18 82 66 12 1 6 112 9 3 37 8 31 39 30 34 49 101 4 96 50 16 16 29 9 112 42 21 38 68 23 43 15 77 26 51 17 5 11 76 49 83 18 0 1 4 0 0 25 112 2 1 2 4 0 0 3 112 18 1 1 4 1 0 8 112 16 1 1 1 0 0 17 100 7 1 0
0.061410669 -0.016570438 0.059999999 57 0 1 16 112 8 6 22 62 38 34 31 95 2 4 19 47 54 25 1 0 0 20 41 26 18 6 77 23 0 1 10 67 0 0 7 112 5 0 16 112 22 3 7 112 3 16 98 45 28 17 38 10 3 70 83 9 3 3 112 78 11 22 13 28 0 0 3 112 59 15 19 98 41 15 4 68 59 107 26 23 27 75 88 7 14 89 20 19 1 9 53 14 11 62 104 0 0 20 3 6 26 16 3 1 2 32 2 1 31 110 3 0 5 21 2 1 17 112 8 3 2 2 0 0 3 47 42 1 0
0.070417471 -0.016021959 0.059999999 30 4 3 4 0 0 7 136 19 7 25 13 0 0 0 20 1 20 22 3 1 10 1 0 0 1 0 0 3 17 5 0 7 2 28 74 0 0 1 36 19 29 112 136 6 1 0 2 136 129 72 26 1 0 0 5 20 9 2 1 2 9 2 1 3 1 60 136 22 9 20 29 77 8 32 132 56 56 26 34 136 35 22 22 8 6 1 22 22 44 62 24 0 0 0 1 1 0 1 15 34 38 79 55 42 13 0 11 136 32 27 32 136 70 37 46 23 2 3 14 22 58 43 51 1 5 21 27 1 0
0.012385376 -0.015459208 0.059999999 113 50 5 8 3 1 0 2 113 113 14 16 6 0 0 17 10 31 48 113 25 0 0 3 4 21 86 96 7 0 1 3 97 29 1 0 0 2 8 30 113 113 107 25 8 7 7 25 32 30 94 78 38 9 3 9 4 5 16 94 72 20 2 2 74 40 12 8 4 6 9 47 60 39 47 47 45 29 16 33 113 32 20 13 31 36 11 44 11 3 4 20 113 96 8 11 31 35 10 2 0 0 1 24 32 27 24 27 10 13 41 38 85 83 64 26 17 10 8 6 5 14 45 70 55 7 0 2 1 0
0.012385376 -0.015459208 0.059999999 11 3 0 0 0 19 30 37 11 7 4 6 10 46 73 38 1 0 0 2 7 26 100 35 4 8 3 2 0 2 113 61 25 28 9 11 38 40 32 28 47 46 44 30 17 34 59 41 109 29 9 7 7 22 113 113 16 19 7 0 0 15 113 113 62 24 16 10 10 5 81 81 20 13 29 35 11 38 113 36 90 77 40 10 3 9 32 28 48 113 28 0 0 3 8 28 49 69 51 6 0 1 6 16 4 20 113 100 9 11 13 4 12 85 76 24 2 2 4 4 85 103 9 0 1 3 4 19 1 0
0.016764771 -0.013972105 0.059999999 124 3 8 6 1 1 1 89 124 3 1 7 2 0 1 98 21 1 16 98 24 10 11 13 8 1 8 79 38 9 3 7 118 5 0 0 0 1 15 124 124 21 7 13 16 2 8 63 16 5 11 97 124 8 2 4 15 5 6 31 21 3 9 31 124 35 16 7 0 0 6 75 43 41 119 40 3 1 5 15 41 11 58 91 38 3 10 37 35 1 1 5 32 18 28 91 25 37 50 37 0 0 1 25 13 45 91 37 0 1 2 1 48 93 84 7 0 1 5 16 53 66 21 17 41 4 1 15 1 0
0.016764771 -0.013972105 0.059999999 66 20 2 1 1 3 16 31 67 12 0 0 12 42 51 36 2 0 0 0 57 123 91 4 3 3 7 5 45 123 7 2 74 3 0 2 5 8 31 107 123 15 1 2 5 14 33 70 12 8 4 1 43 123 111 16 1 0 0 0 17 123 105 1 10 5 6 2 15 83 81 51 70 102 25 5 30 45 18 11 34 123 56 0 0 23 33 5 19 24 1 6 7 123 57 2 1 34 58 9 19 34 15 2 5 17 17 12 53 47 8 2 54 92 13 1 3 7 4 1 34 50 20 45 7 3 0 0 1 0
0.016764771 -0.013972105 0.059999999 1 0 0 2 14 78 128 21 3 0 2 4 5 28 88 73 13 0 0 6 17 33 43 81 1 0 0 20 128 55 8 4 11 15 4 25 91 58 20 4 42 5 4 12 29 23 38 113 6 1 1 23 57 67 51 58 0 0 1 73 128 63 1 0 15 22 14 61 49 6 2 5 128 48 2 12 14 7 5 36 39 19 0 8 120 103 6 13 0 0 0 40 128 66 0 1 11 2 2 8 24 12 4 6 98 14 4 2 3 1 1 74 34 5 10 8 87 29 1 30 1 0 1 2 128 71 0 1 1 0
0.086453445 -0.011514056 0.059999999 0 0 1 4 53 28 1 0 100 37 1 4 21 8 0 1 141 39 0 0 0 1 12 18 12 2 0 0 1 20 40 10 0 0 0 7 83 29 7 0 95 22 0 8 37 27 27 13 141 35 0 0 0 2 9 39 21 2 0 0 0 5 16 20 0 0 0 1 20 29 136 23 21 1 0 0 3 27 141 87 141 3 1 0 0 2 60 141 20 2 8 1 0 5 20 24 2 5 19 10 0 2 85 39 0 4 92 35 0 0 98 36 9 5 141 91 0 0 24 30 6 6 141 71 2 5 5 4 1 0
0.022493843 -0.011269855 0.059999999 3 9 81 19 3 34 81 8 16 4 35 35 39 67 27 35 79 22 6 11 45 58 11 44 26 11 38 40 12 6 17 19 14 37 118 31 7 29 51 7 112 43 55 27 35 62 18 30 25 38 25 35 101 118 5 6 4 18 99 24 12 18 23 3 97 49 116 2 0 0 4 58 118 88 112 51 6 4 1 27 26 13 52 118 44 27 4 18 57 4 7 7 5 21 83 66 24 21 14 1 4 7 52 47 10 36 53 7 13 17 14 8 60 25 26 10 3 2 3 17 118 19 17 1 0 2 3 22 1 0
0.022493843 -0.011269855 0.059999999 10 10 10 9 13 10 10 32 2 8 16 21 20 28 37 53 5 0 0 4 46 102 41 90 11 0 1 9 6 7 34 121 12 4 1 3 12 65 25 21 121 18 5 1 5 44 40 110 37 8 13 4 19 121 80 111 41 9 37 96 13 6 10 121 9 3 5 35 53 107 13 2 104 65 92 12 13 16 13 22 10 72 121 12 16 45 28 9 34 25 58 33 32 21 5 32 6 1 28 106 22 7 3 18 34 11 18 15 3 3 17 86 11 23 30 6 26 81 37 20 63 55 52 11 24 34 2 6 1 0
0.022493843 -0.011269855 0.059999999 16 108 51 36 9 2 1 0 0 4 22 114 47 3 9 5 3 5 5 28 24 34 17 6 19 13 13 6 10 31 9 16 16 41 24 6 4 52 48 6 79 18 13 26 9 13 104 76 7 2 2 54 49 111 114 30 7 16 33 63 41 51 4 2 21 4 5 45 46 39 36 16 114 28 9 34 38 15 11 36 22 13 7 114 100 92 62 10 1 1 11 83 39 114 66 1 27 20 34 87 12 3 16 24 94 29 21 30 6 10 36 34 18 112 31 17 5 45 52 9 3 45 25 2 6 114 67 2 1 0
0.11744397 -0.010545325 0.059999999 27 13 4 1 0 0 0 2 156 11 0 0 0 0 0 32 156 18 4 0 0 0 3 34 4 31 21 2 10 19 8 3 45 14 10 7 0 0 1 4 156 13 1 0 0 0 1 78 120 6 5 1 5 22 5 51 0 15 24 4 5 10 0 0 36 33 14 0 0 0 1 2 156 156 1 0 0 0 0 11 140 84 0 0 6 41 6 9 0 2 1 9 38 42 1 0 17 17 4 0 0 0 0 3 103 156 4 0 0 0 0 1 85 156 14 0 5 6 1 0 1 50 12 2 46 31 4 0 1 0
0.074621975 -0.010438885 0.059999999 1 32 77 3 0 0 0 0 7 37 47 4 0 0 0 0 2 16 37 7 2 0 0 0 0 3 17 10 3 0 0 0 10 55 63 21 14 7 15 6 12 78 122 122 24 2 0 0 39 122 122 33 3 0 0 1 2 22 122 48 2 0 0 1 19 5 15 49 103 13 7 5 68 18 25 59 122 65 2 13 122 63 25 39 73 9 0 22 60 19 72 57 58 4 3 47 30 1 4 17 51 21 20 30 47 1 0 0 86 122 32 33 112 10 0 5 51 44 47 35 80 1 0 2 41 21 23 72 1 0
0.074621975 -0.010438885 0.059999999 2 6 35 55 25 34 3 1 62 56 18 9 7 14 4 14 63 57 4 0 0 0 0 11 5 4 1 0 1 14 2 7 3 6 44 92 12 3 22 35 31 89 115 100 15 2 5 21 115 115 47 2 0 0 0 21 25 26 6 1 0 0 0 2 0 0 0 113 103 22 38 33 20 9 19 115 22 3 56 115 115 106 48 17 0 0 13 99 28 89 16 2 0 0 0 0 2 21 4 8 66 79 26 21 3 1 22 84 21 20 42 83 19 69 53 48 3 4 62 49 46 115 6 1 1 3 9 6 1 0
0.074621975 -0.010438885 0.059999999 4 4 43 49 33 48 8 6 6 64 81 8 4 37 26 3 26 56 38 18 16 4 12 23 51 0 1 6 11 4 10 95 1 6 94 92 44 54 53 0 22 58 120 8 3 61 72 14 120 87 27 1 0 2 29 85 46 1 0 0 0 0 24 77 2 48 74 18 17 67 61 0 56 59 33 0 0 79 120 65 118 9 1 0 0 4 70 120 27 1 0 0 1 2 9 31 4 16 35 7 16 120 39 6 120 34 8 1 4 28 16 76 69 9 1 0 0 0 4 41 7 6 1 1 2 1 1 5 1 0
0.026322044 -0.0092720035 0.059999999 17 60 41 75 17 5 4 10 99 150 21 1 0 0 12 35 57 28 2 0 0 3 55 36 10 9 3 0 1 6 30 13 96 21 17 80 38 18 5 15 150 40 4 0 0 2 3 96 78 31 3 1 16 23 9 42 13 39 4 1 3 3 2 3 60 1 0 1 33 93 52 39 150 47 0 0 0 2 9 38 122 26 2 5 85 54 3 11 67 49 4 5 38 8 0 8 6 0 0 0 18 53 53 11 150 54 0 0 0 8 50 24 107 64 10 16 80 12 4 6 52 44 2 6 53 12 7 4 1 0
0.071467839 -0.0090750027 0.059999999 0 14 55 42 4 0 0 0 1 5 111 58 1 1 0 1 2 35 106 37 7 1 0 1 3 22 36 68 89 6 0 0 46 68 62 74 46 11 0 0 111 23 74 55 30 21 7 39 23 70 39 14 73 72 9 18 10 72 25 24 111 23 7 5 97 51 0 3 52 46 16 13 111 14 1 2 35 41 25 51 55 11 9 12 55 111 27 16 2 19 31 18 14 49 88 41 17 7 15 22 3 26 78 42 24 4 87 49 1 8 43 46 13 3 111 103 3 15 5 8 1 6 105 72 1 7 16 10 1 0
0.037752327 -0.0086660935 0.059999999 133 11 0 0 0 0 0 52 133 2 0 0 0 0 8 133 49 2 7 11 4 21 57 60 14 9 11 32 12 37 30 7 133 7 0 0 0 0 0 122 133 18 3 10 3 0 0 105 32 5 34 133 21 1 1 19 1 12 41 118 11 7 18 5 95 2 0 0 0 0 5 133 133 28 17 29 4 1 4 53 7 5 13 107 27 5 24 50 1 0 2 13 2 8 73 82 64 30 2 0 0 0 1 51 53 7 2 2 1 1 6 39 13 10 2 2 2 2 23 49 18 9 1 0 0 2 12 36 1 0
0.037752327 -0.0086660935 0.059999999 0 0 0 4 10 12 22 8 1 0 1 6 48 45 6 2 0 0 0 15 128 47 4 1 0 0 0 5 128 52 0 0 2 1 2 35 64 13 5 0 71 9 6 25 25 33 12 23 10 1 0 4 113 128 12 9 0 0 0 1 128 128 2 0 10 2 13 79 64 1 0 3 128 11 2 10 19 6 2 42 31 4 0 1 120 127 4 12 0 0 0 0 128 128 0 0 23 3 17 45 3 2 30 31 101 11 13 4 1 1 9 55 11 5 27 54 53 34 2 9 0 0 1 69 123 64 1 0 1 0
0.10269863 -0.0081967199 0.059999999 8 0 0 19 33 13 3 13 134 4 1 37 47 13 0 25 166 4 0 2 4 3 6 100 18 1 1 20 47 29 11 17 7 0 0 1 23 69 11 14 157 9 0 1 31 109 9 22 166 53 1 15 13 2 2 25 25 6 1 56 85 2 1 2 29 0 0 0 1 31 29 39 52 1 0 0 6 113 90 86 166 21 4 16 6 3 15 124 14 6 2 30 36 3 6 18 45 0 0 0 0 2 14 67 14 0 0 0 0 8 79 76 51 4 3 4 1 0 11 68 11 1 2 5 1 0 7 44 1 0
0.029341392 -0.0064026946 0.059999999 58 2 0 0 0 0 1 98 58 5 0 8 6 4 23 118 118 20 0 3 2 1 5 33 52 20 11 3 0 0 2 17 118 0 0 2 3 0 1 118 77 11 5 62 54 7 9 62 118 27 6 16 5 2 9 71 43 22 8 14 2 3 14 43 118 0 0 1 5 6 5 111 35 16 8 13 38 30 43 83 96 49 15 4 2 2 33 118 32 25 5 9 1 2 60 53 118 1 0 14 14 3 2 39 20 41 46 91 53 8 4 11 117 118 56 6 0 0 2 18 65 40 5 0 1 3 12 23 1 0
0.07314454 -0.0057325517 0.059999999 46 0 0 25 45 5 0 17 22 0 0 59 96 9 0 10 134 1 0 10 19 4 1 70 23 1 23 59 32 41 11 10 56 2 0 4 77 25 0 5 45 13 3 26 134 30 0 6 134 42 3 21 41 3 0 22 17 5 31 92 87 37 42 3 40 2 0 29 81 2 0 10 60 3 0 43 134 4 0 22 134 11 0 11 35 21 4 76 11 6 36 35 55 88 53 5 20 4 0 18 70 8 0 2 76 6 0 14 134 4 0 9 134 22 15 25 6 9 4 25 6 5 85 44 7 52 35 5 1 0
0.070220456 -0.0057689287 0.059999999 83 4 0 10 42 4 0 13 27 3 0 28 132 8 0 8 132 18 0 9 41 13 3 46 17 5 28 27 49 67 48 5 80 13 1 19 51 8 1 7 49 6 0 20 132 13 0 6 132 38 11 25 25 10 4 29 19 8 101 73 12 57 44 9 84 2 0 15 60 11 2 19 34 1 0 19 132 29 6 32 132 12 4 27 73 12 6 85 19 29 68 61 75 11 17 51 68 10 0 6 57 13 0 3 49 3 0 10 74 25 2 13 111 9 3 20 67 12 2 31 3 20 43 27 74 47 29 3 1 0
0.14555237 -0.0047920458 0.059999999 38 23 2 1 3 18 16 20 91 36 1 1 11 40 27 40 59 51 36 27 5 53 103 32 27 21 29 14 29 26 58 32 110 50 3 2 8 12 4 30 51 72 7 13 110 63 8 17 84 110 42 36 18 18 15 20 49 33 33 16 14 19 24 40 95 110 6 2 3 1 0 2 70 67 9 10 81 80 8 10 110 91 26 4 32 47 13 30 38 38 50 47 24 18 23 33 57 56 5 1 0 0 0 0 110 75 2 2 38 29 4 4 10 63 53 8 98 70 3 2 12 50 110 36 8 6 4 19 1 0
0.14555237 -0.0047920458 0.059999999 46 9 3 0 0 0 1 52 51 1 0 7 36 14 20 87 54 2 2 6 38 26 37 80 12 3 4 1 19 113 50 35 113 15 2 1 1 0 1 58 66 16 14 93 85 11 13 55 113 40 35 33 30 8 6 49 35 66 44 9 23 78 23 18 113 5 1 6 7 2 1 86 57 15 4 57 98 20 8 60 79 17 6 10 31 26 27 113 26 36 13 13 17 25 31 54 102 1 0 18 39 6 2 81 41 62 6 69 100 4 1 10 69 113 41 13 10 10 14 18 4 17 74 65 7 6 13 20 1 0
0.14555237 -0.0047920458 0.059999999 7 6 8 15 5 56 109 64 79 29 2 3 14 109 58 11 72 33 4 9 109 28 3 7 0 0 0 1 109 38 2 0 19 20 23 43 40 19 19 40 31 37 14 54 109 78 12 5 87 66 5 15 80 43 7 14 2 0 0 2 109 94 4 2 12 18 25 34 29 53 40 20 21 15 11 21 95 109 40 31 109 40 8 24 59 48 6 21 6 5 3 42 109 44 3 2 9 54 75 36 27 15 19 9 3 60 82 47 88 40 24 13 25 47 17 34 68 14 0 1 2 8 9 21 58 24 5 1 1 0
0.14322598 -0.0047282791 0.059999999 6 1 0 0 0 0 9 97 20 1 2 7 4 0 26 128 25 7 29 84 30 3 17 51 36 9 25 54 7 2 8 68 14 0 4 21 6 1 33 128 16 4 32 128 28 3 26 78 62 5 27 68 29 6 55 96 27 9 7 16 24 16 73 79 16 4 41 128 3 0 4 63 54 15 20 128 13 2 14 7 128 79 15 12 8 11 11 45 11 15 32 18 21 25 52 29 6 4 28 63 2 1 33 39 10 4 2 20 5 15 97 31 46 105 58 18 15 16 22 5 11 88 121 9 1 3 4 2 1 0
0.14322598 -0.0047282791 0.059999999 64 20 14 32 8 1 2 5 44 2 7 84 38 2 1 4 128 3 1 5 35 12 4 35 7 0 0 2 128 29 2 4 12 11 12 13 4 46 119 87 53 4 5 22 11 128 66 8 128 36 2 16 39 16 5 22 7 5 1 31 128 12 0 2 14 14 22 36 19 21 39 66 22 18 12 43 100 128 21 9 106 32 3 19 59 28 5 37 4 3 0 19 128 18 1 1 8 18 16 44 21 30 12 8 16 19 13 64 90 32 9 9 98 32 4 19 39 19 7 30 6 2 1 16 120 50 3 5 1 0
0.13470516 -0.004694622 0.059999999 123 29 0 0 28 8 4 7 52 8 0 0 123 27 2 10 60 17 6 18 43 27 9 21 0 0 1 13 75 26 1 0 123 38 2 3 24 4 0 2 68 29 2 16 123 25 0 5 112 54 2 5 68 33 6 11 2 1 1 9 123 37 1 1 123 56 3 4 11 1 0 0 68 22 5 23 123 15 0 7 123 15 2 10 58 24 6 34 4 1 1 9 123 50 2 2 101 30 3 2 3 1 0 3 56 24 6 32 73 10 0 4 123 51 2 11 33 15 3 10 5 5 1 13 123 34 1 1 1 0
0.13470516 -0.004694622 0.059999999 124 34 1 1 4 5 1 13 33 15 3 10 124 51 2 11 73 9 0 4 56 24 6 33 3 1 0 4 102 30 3 2 124 49 2 2 4 1 1 9 58 24 6 34 124 14 2 10 124 14 0 7 68 22 5 23 12 1 0 0 124 55 3 4 124 37 1 1 2 1 1 9 68 33 6 11 112 53 2 5 124 24 0 5 68 28 2 17 23 4 0 2 124 37 2 3 75 26 1 0 0 0 1 13 42 26 9 22 61 17 6 18 124 26 2 10 52 8 0 0 28 8 4 7 124 29 0 0 1 0
0.13931461 -0.0043497351 0.059999999 118 3 0 0 0 0 0 23 118 14 2 53 93 1 0 23 8 10 1 51 118 2 6 37 11 39 25 6 13 10 28 58 118 36 5 1 0 1 2 25 84 46 48 105 63 15 7 15 73 7 5 52 56 4 3 93 15 1 8 33 48 5 8 63 118 4 1 0 1 2 9 72 50 5 8 20 103 74 29 42 118 19 5 11 43 22 4 25 21 5 11 63 87 20 6 10 118 2 0 1 6 0 1 24 61 2 0 30 118 3 2 15 84 10 6 16 43 8 6 49 8 5 8 53 81 14 3 3 1 0
0.13931461 -0.0043497351 0.059999999 69 27 4 8 16 7 6 33 77 8 4 33 85 11 3 6 118 12 4 6 100 10 0 4 0 0 1 4 118 15 1 0 96 27 8 8 31 10 9 47 46 33 4 11 118 37 4 8 74 82 38 38 64 10 9 18 0 0 7 41 118 13 2 1 70 6 2 34 18 2 8 36 54 5 2 76 97 16 4 29 100 12 6 6 70 46 41 98 0 0 1 7 118 59 8 1 31 17 23 58 12 12 19 7 111 4 6 59 20 10 4 12 118 5 0 6 93 18 2 36 0 0 0 6 118 15 0 0 1 0
0.089469038 -0.0040269434 0.059999999 128 32 0 0 0 0 0 24 161 56 0 0 0 0 0 11 99 13 6 27 22 3 6 17 33 28 9 20 15 0 0 6 127 97 10 1 0 0 0 5 161 57 1 1 2 0 0 41 104 15 14 56 36 3 0 15 80 15 5 17 6 1 0 16 132 44 13 8 2 0 0 21 161 67 0 1 2 0 0 14 84 22 0 6 48 14 10 10 41 26 3 4 4 4 6 15 123 8 1 2 0 0 0 25 161 71 0 0 0 0 0 10 81 45 4 14 8 4 5 6 8 17 15 28 6 1 2 2 1 0
0.1463089 -0.0034491119 0.059999999 19 23 24 9 0 0 0 4 59 30 1 0 7 30 26 31 101 29 0 0 15 49 22 43 74 45 24 17 3 47 85 36 51 32 21 5 0 0 0 2 120 47 1 2 18 22 9 63 50 69 5 14 120 66 10 17 67 120 41 36 13 8 7 9 41 45 3 0 0 0 0 0 120 120 10 7 12 2 1 10 47 50 12 16 120 94 7 12 120 54 4 2 19 38 11 43 5 14 9 1 0 0 0 0 120 105 4 0 0 0 0 1 106 53 3 4 57 39 4 5 26 89 42 10 67 31 2 3 1 0
0.1463089 -0.0034491119 0.059999999 6 21 30 0 0 0 0 1 94 18 11 0 0 1 7 43 36 0 0 1 41 43 28 35 25 0 1 2 12 35 58 78 62 14 2 0 0 0 0 15 125 12 2 6 8 5 12 125 58 7 6 46 125 28 19 59 125 39 28 9 17 21 18 67 87 21 2 0 0 0 0 9 125 64 9 18 23 5 2 58 54 21 15 92 125 26 8 35 117 51 28 15 12 15 12 65 99 6 2 0 0 0 0 20 125 4 0 14 26 7 1 67 58 30 3 48 87 26 6 44 72 36 1 2 20 19 16 82 1 0
0.1463089 -0.0034491119 0.059999999 51 20 2 6 41 114 37 11 72 42 4 7 92 33 4 10 0 0 0 2 122 87 2 0 0 0 0 0 8 15 9 1 19 32 13 56 122 47 3 3 122 83 6 15 48 44 10 20 13 2 1 13 122 122 8 7 0 0 0 1 45 41 2 0 11 8 5 6 82 122 44 35 122 57 10 20 59 55 4 17 17 17 9 78 122 39 1 3 0 0 0 4 52 28 19 3 2 52 89 50 85 33 16 9 20 54 20 43 82 14 0 0 6 23 21 33 70 31 2 0 0 0 0 2 17 20 28 9 1 0
0.065968812 -0.0032489623 0.059999999 70 6 0 0 0 0 0 11 167 13 0 1 5 0 0 43 50 3 0 28 110 14 1 9 36 1 0 15 65 18 5 32 74 27 4 0 0 0 1 5 167 45 0 1 6 1 0 12 68 5 0 15 140 19 0 4 89 3 0 15 79 13 1 10 99 16 5 0 0 0 0 18 167 15 0 0 8 0 0 22 69 3 0 11 155 8 1 1 65 0 0 5 58 10 6 35 83 10 0 0 0 0 0 13 167 25 0 0 4 1 0 16 61 5 0 5 91 24 1 2 48 1 0 3 23 10 3 20 1 0
0.068454541 -0.0030124816 0.059999999 53 8 0 0 0 0 0 12 151 34 1 3 4 1 0 22 35 10 1 22 116 18 0 3 93 15 0 6 118 12 0 8 60 25 0 0 0 0 0 3 151 33 0 0 6 2 1 29 58 2 0 25 139 26 2 13 74 3 0 9 106 31 7 50 69 15 0 0 0 0 0 5 151 62 0 1 8 1 0 10 66 14 1 12 133 41 0 2 92 10 1 7 59 25 2 19 27 18 7 0 0 0 0 2 151 59 1 0 2 1 0 3 82 11 0 3 107 12 0 0 61 4 0 4 61 10 3 12 1 0
0.07171274 -0.0027859688 0.059999999 57 25 0 0 0 0 0 7 152 54 0 0 4 2 0 9 47 7 0 2 84 55 0 1 25 14 2 9 123 38 0 1 54 25 0 0 0 0 1 5 152 45 0 0 2 0 0 22 83 7 0 16 116 12 0 8 32 3 0 15 152 13 0 6 65 7 0 0 0 0 0 14 152 50 1 1 1 0 0 23 67 24 2 26 93 16 1 2 26 7 0 8 152 29 0 2 39 25 0 0 0 0 0 1 152 52 0 0 0 0 0 9 85 6 0 8 57 22 2 13 10 1 0 10 127 35 2 10 1 0
0.060964011 -0.0027463837 0.059999999 13 1 0 0 0 0 0 7 113 3 0 0 0 0 0 54 168 0 0 0 3 1 0 76 45 0 0 11 68 8 1 9 21 6 0 0 0 0 1 14 168 37 0 0 0 0 0 32 168 23 0 1 8 2 1 58 36 0 0 9 106 21 6 14 22 20 0 0 0 0 0 3 168 23 0 0 0 0 0 20 168 9 1 2 10 1 0 36 39 2 1 8 86 10 3 7 31 1 0 0 0 0 0 10 168 3 0 0 0 0 0 19 168 17 1 5 6 1 0 8 20 4 1 16 38 4 1 6 1 0
0.070934318 -0.030024445 0.059999999 2 1 1 0 0 20 108 11 19 5 0 0 0 17 68 88 17 6 0 0 7 70 110 54 5 0 0 0 13 70 22 55 67 40 13 12 23 29 65 14 65 34 2 3 82 73 47 29 110 56 1 1 59 61 21 24 53 7 0 0 84 77 12 49 95 16 23 25 33 24 13 39 73 23 22 75 102 12 2 22 110 44 11 21 55 14 1 48 24 35 20 57 110 23 0 3 3 6 108 37 1 3 3 5 11 55 61 52 1 0 0 1 23 110 85 50 5 0 0 2 0 6 35 110 23 0 0 0 1 0
0.07643155 -0.029521702 0.059999999 20 2 8 14 51 10 8 29 12 3 4 11 15 29 86 36 8 8 2 3 6 73 112 16 12 0 0 0 2 60 48 64 112 0 0 12 90 5 2 38 77 14 9 47 112 20 20 37 112 63 11 25 41 39 23 19 84 6 1 19 66 57 13 21 112 9 16 23 42 4 0 25 71 2 11 37 112 47 11 26 86 15 60 97 25 14 12 49 76 52 27 109 30 0 0 0 112 41 26 16 4 0 1 7 26 13 40 112 63 2 0 2 1 2 84 91 6 1 1 2 16 46 20 31 0 0 0 1 1 0
0.07643155 -0.029521702 0.059999999 0 0 0 1 7 28 15 35 17 1 1 1 1 1 65 104 78 3 0 1 44 19 30 111 3 0 1 2 111 44 28 13 30 0 0 0 51 64 26 111 29 17 13 41 82 17 51 102 111 55 11 17 88 3 7 25 55 7 0 10 111 11 13 20 69 45 10 11 87 18 2 21 44 37 23 16 111 75 12 21 111 23 24 28 76 18 10 34 86 10 4 28 111 1 0 4 3 47 42 82 29 1 0 0 4 70 111 20 9 10 2 2 16 23 95 34 9 4 3 10 35 11 11 26 19 2 11 15 1 0
0.085131161 -0.02869625 0.059999999 5 3 0 37 131 0 0 0 131 8 1 11 36 0 0 12 66 8 9 41 105 3 1 8 12 30 52 13 10 0 0 1 12 2 0 58 131 0 0 1 131 22 3 10 40 1 0 25 60 9 14 31 131 43 5 7 64 16 28 11 22 31 8 2 5 5 0 39 131 22 5 0 78 114 60 6 15 7 19 2 12 48 131 26 34 35 20 1 30 25 51 40 19 32 10 1 0 0 0 2 57 78 53 0 0 7 9 0 2 27 131 11 0 6 32 2 1 33 131 10 0 5 16 6 0 58 72 0 1 0
0.072197862 -0.028562495 0.059999999 88 12 12 37 26 12 8 55 64 1 5 48 74 41 11 58 55 0 2 67 36 24 49 104 1 0 3 45 85 63 30 10 21 21 115 77 4 3 6 26 115 49 48 76 15 0 0 39 79 14 8 115 115 4 1 37 56 5 6 70 37 6 27 91 12 9 43 13 0 0 2 3 91 115 64 10 3 0 0 2 25 83 115 85 65 4 1 6 51 115 30 36 40 6 2 18 1 1 1 1 0 15 10 0 1 12 22 7 3 3 2 0 0 19 51 20 5 1 0 0 1 101 43 3 3 1 1 0 1 0
0.029804885 -0.026518883 0.059999999 80 7 40 74 0 0 1 41 124 8 3 2 0 0 0 53 122 15 3 0 0 0 0 7 14 30 29 13 0 0 0 0 94 11 3 3 0 36 50 53 124 33 8 2 0 0 2 22 68 23 96 45 0 0 0 5 1 10 124 70 0 0 0 0 12 1 0 0 4 110 108 19 62 24 61 30 25 33 26 21 6 8 124 122 4 1 0 0 1 24 124 41 0 0 0 0 0 0 0 0 5 63 39 14 0 0 11 16 55 124 41 0 0 1 68 36 21 124 26 0 0 24 84 8 2 31 7 0 1 0
0.029804885 -0.026518883 0.059999999 0 1 42 79 10 1 0 1 0 2 31 123 46 10 2 0 0 0 15 123 51 41 28 0 59 20 1 22 26 60 28 5 34 20 97 123 8 0 0 3 98 28 40 28 11 22 33 32 7 0 0 3 8 89 123 11 10 3 0 0 0 123 109 3 119 11 26 50 0 0 0 33 123 34 1 0 0 2 7 27 69 5 0 0 0 44 82 25 0 0 0 0 0 84 110 1 54 0 0 1 0 0 9 92 123 7 0 0 0 0 3 49 107 7 0 0 0 2 14 34 1 0 0 0 0 22 54 13 1 0
0.065876789 -0.019683532 0.059999999 0 0 4 3 0 0 66 34 0 1 29 4 0 1 48 29 0 5 43 1 0 0 26 23 1 11 12 0 0 0 10 13 2 6 33 42 16 14 14 5 5 7 137 71 44 33 9 2 60 59 137 17 11 3 4 20 8 62 80 12 12 4 4 9 94 27 14 10 15 23 17 15 27 3 6 12 137 99 15 4 137 16 7 5 80 18 3 29 45 14 23 22 137 23 4 15 137 6 1 1 11 6 2 19 20 0 0 0 137 61 3 6 137 3 0 0 75 26 7 31 56 3 0 0 133 46 5 13 1 0
0.065876789 -0.019683532 0.059999999 140 11 3 28 40 3 1 7 82 8 4 72 140 0 0 2 140 27 6 20 41 0 0 12 39 5 2 40 89 1 0 1 109 7 6 18 29 30 40 42 79 6 6 88 140 15 9 9 140 46 8 10 37 3 6 20 28 22 12 39 104 15 6 4 3 2 5 8 7 85 54 5 10 1 5 24 46 88 140 12 62 37 8 2 5 13 140 50 17 21 13 4 12 15 38 37 0 0 22 13 1 6 6 0 0 1 46 17 0 8 32 0 0 2 56 17 0 4 37 2 0 3 58 15 0 0 8 6 1 0
0.090914339 -0.017744003 0.059999999 0 0 0 1 5 15 4 0 0 0 5 89 32 9 0 0 12 3 71 126 6 0 3 29 4 12 70 7 0 10 36 30 0 0 0 10 31 23 3 0 12 3 4 126 126 27 1 1 126 17 15 79 33 7 5 88 33 5 7 28 12 19 49 61 0 1 0 1 13 57 11 0 9 1 0 9 126 126 11 4 126 95 9 3 23 126 24 17 24 66 39 71 56 4 8 4 0 6 7 1 1 8 2 0 0 0 2 3 16 111 3 0 3 17 3 0 5 126 97 3 2 18 13 11 9 21 126 8 1 0
0.090914339 -0.017744003 0.059999999 2 14 130 24 1 7 6 2 2 130 107 2 1 4 2 1 5 85 15 0 0 0 3 2 0 8 7 0 0 4 6 1 59 8 35 9 14 76 62 41 16 130 67 12 105 107 18 2 109 130 36 2 7 2 0 5 14 50 22 0 0 0 0 1 45 7 28 32 35 16 10 46 37 10 5 59 130 60 10 47 130 37 1 1 17 8 5 120 37 17 4 0 0 0 0 8 1 12 65 38 7 8 39 7 9 0 7 52 33 4 53 117 50 6 1 0 1 1 5 112 6 15 7 0 0 0 0 1 1 0
0.090914339 -0.017744003 0.059999999 4 5 4 5 9 33 81 93 14 64 14 10 80 58 27 36 130 131 7 3 15 4 0 1 27 7 0 0 0 8 5 4 11 47 59 43 6 6 27 21 27 14 25 131 125 18 7 19 131 65 7 31 21 2 1 42 74 13 0 0 1 3 2 5 1 18 75 45 5 53 77 3 11 1 23 104 22 14 131 131 130 8 1 6 2 1 38 131 56 23 0 0 1 0 0 7 2 2 0 0 0 20 70 6 10 1 0 0 0 1 80 55 14 4 0 0 0 0 13 40 23 12 0 0 0 0 0 5 1 0
0.061653204 -0.014091534 0.059999999 71 44 7 4 2 61 70 44 91 124 6 2 2 10 2 27 11 7 25 51 13 2 0 0 0 0 79 36 3 3 0 0 21 74 74 22 21 69 29 4 124 48 19 17 31 33 4 10 42 3 10 49 124 16 0 1 0 0 50 25 21 14 10 0 12 52 93 16 3 2 124 52 124 22 27 10 14 4 59 124 28 0 0 0 114 67 3 11 0 0 0 1 14 43 37 1 3 38 124 0 0 0 98 24 54 113 70 0 5 2 31 53 11 8 0 0 57 44 1 4 0 0 11 26 39 28 7 0 1 0
0.11898479 -0.010538578 0.059999999 16 29 2 0 0 0 0 0 70 49 0 0 0 0 0 1 160 27 0 0 1 17 40 42 22 3 1 0 11 105 160 33 27 32 0 0 0 0 0 0 110 37 4 0 0 0 0 3 160 14 1 0 0 1 2 53 59 23 21 4 12 20 11 18 19 33 4 0 0 0 0 0 105 65 8 0 0 0 0 2 160 119 0 0 0 4 2 33 38 20 6 7 23 32 4 9 6 26 8 0 0 1 1 0 34 54 6 0 0 0 0 0 125 160 14 0 0 0 0 0 23 160 38 2 21 18 1 0 1 0
0.1036321 -0.0094463862 0.059999999 30 10 1 11 24 12 13 6 183 34 1 2 4 1 3 86 71 6 2 0 7 26 22 63 8 7 14 8 4 10 16 18 64 2 0 20 60 36 5 11 183 15 1 5 7 4 4 89 101 8 1 36 77 27 12 37 28 31 4 10 16 6 5 15 35 0 0 0 11 110 45 27 183 39 2 5 3 17 21 78 93 23 5 47 70 3 4 10 29 5 1 5 11 2 6 54 14 0 0 0 0 21 77 69 110 4 2 1 0 5 39 139 34 5 3 8 7 1 4 51 10 0 0 0 1 0 6 82 1 0
0.081543617 -0.0053438074 0.059999999 137 1 0 1 3 1 0 38 34 4 3 21 60 2 0 7 52 39 6 8 10 1 0 7 13 5 0 0 2 6 30 20 137 0 0 1 11 1 0 50 33 5 4 52 136 6 0 10 137 27 8 24 18 1 0 22 51 3 28 28 0 0 12 35 137 3 0 3 18 0 0 28 32 3 1 24 137 15 0 2 137 20 5 21 40 4 0 4 35 8 44 137 40 3 19 16 137 3 1 9 11 0 0 13 23 5 3 56 137 1 0 0 137 13 3 16 45 8 1 4 50 2 1 19 48 19 22 68 1 0
