# .PCD v0.7 - Point Cloud Data file format
VERSION 0.7
FIELDS x y z descriptor multiplicity pointId
SIZE 4 4 4 4 4 4
TYPE F F F F I I
COUNT 1 1 1 128 1 1
WIDTH 131
HEIGHT 1
VIEWPOINT 0 0 0 1 0 0 0
POINTS 131
DATA ascii
0.19452389 0 0.076219618 2 0 0 0 0 2 10 34 2 0 0 0 0 8 103 78 1 0 0 0 0 9 104 104 12 5 2 1 0 0 39 109 109 1 0 1 1 0 4 84 63 7 21 78 31 25 64 104 97 29 28 37 8 17 47 65 24 18 43 68 9 5 8 35 109 28 3 2 11 23 49 37 63 65 52 24 35 74 25 11 64 12 53 105 14 22 30 36 5 2 71 109 9 2 13 4 12 28 42 75 43 24 20 13 3 50 109 20 8 3 1 4 7 5 95 53 4 2 18 79 0 0 2 18 4 15 94 55 1 0
0.19452389 0 0.076219618 11 0 0 0 25 33 6 43 41 35 17 8 0 9 56 107 3 12 21 51 40 108 44 6 0 0 0 3 14 35 3 1 73 9 1 11 88 17 4 80 51 19 62 46 27 23 34 103 59 46 43 17 50 112 35 9 1 1 1 11 112 85 3 0 112 28 2 31 30 1 1 24 106 18 7 12 34 112 40 32 67 18 25 106 80 42 22 23 1 0 4 87 107 5 0 0 112 3 0 6 3 1 0 36 82 10 7 5 40 27 21 31 0 0 3 54 112 18 3 0 0 0 0 28 35 1 0 0 1 0
0.16780443 0 0.089523166 0 0 0 1 1 4 24 5 5 0 0 0 0 6 18 14 6 0 0 0 0 9 72 45 0 0 0 0 0 17 86 5 0 0 0 0 3 43 117 55 44 0 0 0 36 117 79 31 117 13 4 0 3 44 84 117 4 4 4 0 18 91 117 14 3 11 103 13 11 26 36 26 31 10 43 66 117 86 7 6 117 98 85 12 15 11 1 7 3 64 117 26 34 20 11 0 0 12 117 10 0 0 4 1 0 6 92 67 11 0 5 0 3 31 83 19 1 0 8 4 0 24 101 17 1 0 25 8 1 0
0.03895282 0 0.07988634 0 0 0 62 135 0 0 0 0 0 3 17 35 0 6 8 5 5 1 0 0 6 11 3 135 2 0 0 0 0 0 19 6 0 0 85 135 0 0 2 64 2 0 10 19 8 29 75 14 1 0 4 43 81 44 23 135 0 0 0 8 8 0 40 17 1 0 64 135 0 0 1 135 16 1 9 17 2 1 23 39 6 1 49 129 15 2 9 135 0 0 5 17 1 0 57 20 0 0 31 109 0 0 10 123 1 0 8 24 0 0 37 39 0 0 32 107 0 0 9 135 0 0 1 5 0 0 45 1 0
0.098542526 0 0.030192252 49 5 0 0 0 0 0 2 145 13 0 0 0 0 0 6 191 38 0 0 0 0 0 0 44 4 0 0 0 0 1 4 63 3 0 0 0 0 0 6 163 13 0 0 0 0 0 3 191 31 0 0 0 0 0 0 75 5 0 0 0 0 0 2 64 1 0 0 0 0 0 13 147 3 0 0 0 0 0 14 191 13 0 0 0 0 0 3 78 3 0 2 0 0 1 2 55 1 0 0 0 0 0 18 93 3 0 0 0 0 0 18 191 19 0 0 0 0 0 2 67 4 0 0 0 0 2 7 1 0
0.18938208 -0.105 0.029114593 27 5 0 0 0 0 1 28 140 44 8 0 0 0 13 100 189 67 1 0 2 0 1 32 23 5 1 6 162 42 4 1 17 20 20 0 0 0 1 3 124 113 111 9 0 0 4 15 189 134 8 0 0 2 2 20 53 4 3 8 66 62 28 6 0 1 6 0 0 0 8 3 77 12 21 1 0 0 29 47 189 11 0 1 0 0 2 49 34 4 6 12 3 6 9 5 0 0 0 0 0 0 0 0 0 0 0 0 0 0 0 0 0 0 0 0 0 0 0 0 0 0 0 0 0 0 0 0 1 0
0.050305419 -0.105 0.049881201 102 29 6 5 13 4 11 21 161 14 0 0 0 0 13 62 38 0 0 0 0 6 71 98 9 0 0 0 4 22 51 31 90 11 1 1 3 2 27 36 161 19 0 0 0 0 8 83 64 3 2 8 8 14 42 91 12 3 0 3 34 27 6 6 65 12 1 0 0 0 8 62 161 46 2 0 0 0 3 55 85 26 13 24 6 4 27 42 1 1 1 5 15 13 101 38 39 28 1 0 0 0 4 36 161 68 0 0 0 0 1 28 139 9 0 0 0 2 21 111 14 8 3 0 3 11 48 59 1 0
0.10763699 -0.105 0.12383366 0 0 0 0 0 0 0 0 54 3 2 2 0 0 3 6 180 3 0 0 5 18 40 54 9 0 0 0 12 72 180 25 0 0 0 0 0 0 0 0 91 24 18 19 1 0 0 0 180 23 3 1 0 0 7 47 37 0 0 0 1 5 70 69 0 0 0 0 0 0 0 0 143 7 3 11 10 0 0 1 180 21 2 0 0 0 0 30 64 32 26 13 15 4 17 38 0 0 0 0 0 0 0 0 114 25 8 5 1 0 0 0 180 89 16 1 0 0 0 0 16 50 81 8 1 0 0 0 1 0
0.14704555 -0.105 0.08404129 56 35 20 22 13 0 0 0 13 19 121 83 20 0 0 0 133 90 64 8 0 0 0 8 33 15 4 2 12 0 1 5 92 5 0 13 52 10 2 6 39 17 6 53 112 34 12 7 133 46 4 6 3 3 5 28 61 10 2 1 20 1 1 5 109 0 0 0 10 32 49 53 12 1 0 1 26 126 133 34 133 6 0 0 1 14 110 133 49 10 2 8 24 1 1 9 133 3 0 0 0 1 12 44 7 0 0 0 0 12 94 43 2 0 2 5 9 30 80 27 3 2 2 17 33 18 4 2 1 0
0.078183949 -0.105 0.10941344 9 0 1 5 3 0 0 1 166 4 2 4 2 0 0 68 166 9 1 0 0 0 17 93 3 3 8 19 15 6 32 28 38 6 6 4 0 0 0 2 166 19 3 1 0 0 0 57 163 73 54 3 0 0 0 21 4 36 39 35 25 7 2 2 71 13 3 0 0 0 0 2 166 74 6 0 0 0 0 10 60 78 104 3 1 0 0 2 2 68 101 7 1 1 0 0 44 1 0 0 0 0 21 47 166 6 0 0 0 0 4 67 48 7 10 4 15 5 1 12 19 13 18 1 5 1 1 8 1 0
0.09785264 -0.105 0.074857496 28 9 3 8 1 0 16 49 6 1 0 1 2 7 105 83 1 1 0 0 0 20 118 39 0 0 0 0 85 118 52 17 118 12 0 0 0 3 15 106 26 15 7 1 11 23 29 64 73 19 8 5 3 18 68 44 2 1 3 20 118 96 41 7 118 118 14 2 2 3 5 25 24 38 26 12 25 24 12 32 53 19 24 48 14 3 6 48 1 2 18 91 74 12 0 0 118 86 4 0 0 0 0 6 26 55 31 5 2 2 1 5 4 16 106 107 16 0 0 2 0 5 118 83 10 0 0 0 1 0
0.097627282 -0.105 0.056841422 136 30 0 0 0 0 1 28 111 1 0 0 0 0 24 77 6 2 0 0 0 1 76 73 4 5 4 1 4 40 96 23 136 16 0 0 0 0 10 81 136 14 2 1 2 6 45 136 9 11 8 8 45 39 49 41 48 25 17 3 10 12 17 33 136 45 2 0 0 0 1 20 136 112 24 5 2 1 2 19 21 32 28 28 46 13 18 29 50 13 12 11 13 6 37 61 136 4 0 0 0 0 7 87 109 19 2 0 0 3 6 41 28 53 29 3 1 1 2 8 9 24 74 38 9 2 5 7 1 0
0.097492799 -0.105 0.090190783 1 0 1 0 0 0 128 128 2 0 0 0 0 6 128 128 0 0 0 0 6 40 102 70 0 0 0 0 16 21 14 10 27 26 35 3 0 0 40 80 108 27 11 4 2 14 51 92 7 3 7 22 49 128 58 23 2 0 0 2 18 56 60 11 73 55 15 0 0 1 2 29 108 80 74 28 12 11 8 32 20 61 120 102 31 16 7 9 25 63 41 26 33 32 37 22 117 72 6 1 1 2 3 24 18 25 26 24 53 23 7 16 10 23 18 12 17 9 30 46 4 31 30 14 14 15 32 16 1 0
0.097492799 -0.105 0.090190783 19 13 13 2 2 12 70 55 2 3 11 7 24 91 88 12 17 0 0 0 5 24 58 49 6 0 0 0 145 73 12 10 25 25 40 6 24 15 4 7 107 21 23 7 11 31 74 75 11 2 2 10 42 111 109 25 2 0 0 1 145 45 5 5 27 2 2 12 41 14 42 70 118 51 49 22 19 15 38 52 7 14 81 111 55 25 5 2 0 0 8 30 145 20 0 0 43 47 38 10 4 3 12 34 5 12 52 76 55 12 13 9 0 1 35 32 10 0 0 0 0 0 5 12 145 14 0 0 1 0
0.18728976 -0.105 0.11035938 1 0 0 1 25 7 1 1 56 0 0 0 2 4 2 12 23 3 0 0 0 0 0 1 0 2 0 0 0 0 0 0 10 4 11 35 57 13 2 4 161 15 6 2 6 8 4 46 124 42 84 2 0 0 0 4 0 33 85 0 0 0 0 0 21 35 42 15 2 0 0 0 161 63 38 34 16 0 0 5 37 40 161 96 27 0 0 0 2 45 161 59 4 0 0 0 48 29 16 14 1 0 0 1 161 12 5 24 72 0 0 9 9 8 29 87 137 0 0 0 17 12 46 123 30 0 1 17 1 0
0.057036709 -0.105 0.043838706 45 7 2 4 7 6 1 2 172 6 0 0 1 1 8 70 50 1 0 0 1 10 112 103 18 5 0 2 15 55 78 17 65 16 4 12 9 5 11 15 172 9 1 3 2 0 2 49 146 37 47 27 3 6 18 52 9 12 42 82 47 33 15 7 29 4 1 2 0 3 104 67 172 22 5 1 0 0 15 91 65 22 45 41 0 2 18 7 1 5 25 38 1 2 33 3 38 18 3 6 3 0 12 8 172 16 1 2 1 0 3 25 51 1 0 0 0 1 42 26 4 0 0 0 0 0 57 28 1 0
0.15032803 -0.105 0.073417813 21 31 25 17 24 0 11 35 167 58 18 0 0 0 12 57 113 13 1 0 1 2 3 9 5 1 1 6 22 12 3 2 41 36 41 30 95 2 0 0 167 87 26 3 3 0 0 28 124 15 10 15 6 0 0 20 8 2 14 30 9 0 0 2 42 1 0 1 77 78 75 24 167 28 1 0 3 6 29 101 94 24 11 20 5 0 0 7 20 1 2 7 1 0 0 12 1 0 0 0 1 65 167 19 59 1 0 0 0 7 105 136 22 5 2 0 0 0 1 15 27 10 0 0 0 0 0 2 1 0
0.1549357 -0.105 0.081436783 2 4 10 53 35 0 0 1 32 6 2 40 18 0 17 49 154 8 1 0 0 0 8 59 49 4 0 0 1 8 6 8 1 2 2 19 94 1 0 0 49 85 73 23 35 0 7 25 154 86 23 0 0 0 4 35 67 12 4 4 2 1 1 8 0 0 0 12 114 11 1 0 114 17 15 17 101 19 4 9 154 35 4 1 1 0 1 34 40 8 8 19 6 0 0 7 0 0 0 0 23 64 112 0 37 0 0 0 20 80 154 51 154 12 1 0 0 1 35 111 20 8 4 6 0 0 0 2 1 0
0.17790145 -0.105 0.080427051 0 12 71 1 0 0 0 0 0 17 90 6 0 1 0 0 0 12 51 7 1 11 7 0 0 0 24 4 0 5 20 2 2 5 162 49 16 0 0 0 17 62 162 49 6 0 0 0 114 162 128 3 0 0 0 6 10 9 31 4 0 3 1 2 6 7 23 104 63 1 0 2 102 20 44 84 30 0 7 34 162 48 8 1 0 1 3 49 32 4 0 0 2 19 11 10 4 4 6 40 68 1 0 4 65 44 32 13 13 0 22 77 162 47 7 0 0 0 6 39 45 10 1 1 4 5 5 6 1 0
0.11580782 -0.105 0.076205395 13 4 1 3 6 1 5 26 14 7 4 4 3 2 27 51 13 32 77 21 5 23 32 6 4 4 66 67 4 12 2 0 31 27 6 0 0 0 0 5 120 32 7 2 2 6 56 120 13 5 5 15 53 120 120 48 2 0 2 4 35 105 53 33 43 73 31 0 0 0 0 1 120 120 49 4 1 1 3 25 22 64 120 98 54 27 8 10 67 36 11 19 29 21 46 111 120 120 22 0 0 0 0 5 38 38 15 0 0 0 4 14 10 31 58 8 0 1 2 0 54 120 23 1 0 0 0 3 1 0
0.17940058 -0.105 0.10460377 0 7 24 0 0 24 138 0 4 12 20 0 0 19 138 10 14 9 3 0 0 12 138 19 0 1 8 4 1 22 119 1 0 28 138 0 0 3 28 0 11 74 138 0 0 6 60 2 105 85 29 0 0 6 106 17 18 1 0 0 0 17 138 13 16 43 53 1 0 0 1 9 54 45 38 0 0 5 29 29 138 27 5 0 0 1 3 38 48 0 0 0 0 0 2 15 6 70 32 0 9 18 7 5 78 113 42 0 0 1 1 5 138 16 3 0 0 0 0 37 26 0 0 0 0 0 0 20 1 0
0.055766586 -0.105 0.035414871 13 9 4 4 17 3 0 1 82 8 2 5 10 9 0 3 180 7 0 0 0 0 8 68 41 2 0 0 0 4 81 93 21 23 4 9 31 5 5 2 107 20 5 16 14 7 6 14 180 20 0 1 1 0 1 32 123 30 31 16 1 2 7 35 5 7 2 2 5 18 112 27 48 6 2 5 1 1 118 102 180 29 4 1 0 0 10 87 60 24 36 34 0 1 7 4 23 21 15 5 0 2 22 11 41 13 1 4 3 1 30 21 180 18 0 1 0 0 3 25 47 2 1 1 0 0 30 23 1 0
0.049803574 -0.105 0.014644257 8 0 0 0 0 0 1 4 102 0 0 0 0 0 1 111 39 0 5 18 5 13 49 88 2 10 12 9 3 100 69 0 20 1 0 0 18 22 13 8 119 17 2 8 12 5 4 92 47 6 8 93 61 1 1 42 26 21 16 22 8 6 2 16 17 1 0 0 28 41 86 44 119 32 10 27 17 50 119 41 68 17 14 96 25 28 8 24 45 4 8 18 24 4 3 58 53 5 4 1 0 3 47 102 16 16 8 1 3 113 119 29 23 6 4 4 5 119 117 11 67 5 14 13 3 17 60 119 1 0
0.014662525 -0.105 0.12137816 75 2 0 0 0 0 0 40 120 5 2 68 44 5 0 76 64 5 4 59 55 16 2 26 96 0 0 0 0 0 0 61 107 7 0 1 5 0 0 78 82 14 9 120 117 2 1 38 120 25 11 64 21 0 0 13 120 21 13 2 0 0 0 17 62 120 41 18 8 0 0 26 51 36 57 120 120 1 1 12 120 39 4 17 15 0 0 7 38 71 66 0 0 0 0 0 0 45 40 4 0 0 0 0 47 19 62 40 2 0 0 3 116 16 3 1 0 0 0 7 4 21 30 0 0 0 0 0 1 0
0.014662525 -0.105 0.12137816 0 0 0 0 14 16 7 0 9 0 0 0 61 50 9 24 24 0 0 0 3 39 117 87 0 0 0 0 3 46 43 1 0 0 0 0 19 50 66 6 55 3 0 0 119 123 7 18 123 37 0 12 47 45 40 66 5 3 0 23 102 55 17 2 0 0 0 0 32 62 66 16 25 0 0 0 123 123 9 17 123 12 0 5 53 41 10 70 11 1 0 13 123 68 2 4 0 0 0 2 45 18 6 9 11 3 1 3 123 52 2 6 120 43 5 5 51 12 2 28 10 6 2 13 123 18 0 1 1 0
0.010217753 -0.105 0.1286591 0 0 0 0 14 7 1 1 0 0 0 0 2 5 31 14 0 0 0 0 0 9 22 1 0 0 0 0 0 0 0 0 10 0 0 0 115 78 7 15 101 3 0 0 21 58 129 129 7 0 0 3 33 129 119 18 0 0 0 0 0 1 0 0 21 0 0 0 129 122 9 8 129 31 0 12 50 37 13 61 33 10 0 59 129 70 11 9 0 0 0 2 6 1 0 0 6 0 0 0 129 82 5 10 129 1 0 2 41 31 9 88 26 0 0 18 129 66 3 12 0 0 0 2 14 3 0 0 1 0
0.056858435 -0.105 0.0094484556 1 17 27 2 2 37 80 5 0 6 53 25 7 95 108 1 87 11 37 22 5 39 33 127 108 20 21 8 14 3 4 102 1 63 127 21 0 1 6 2 12 21 127 127 7 20 33 8 127 79 72 35 4 10 14 44 76 40 55 21 40 11 2 15 10 19 44 14 0 0 2 4 40 20 39 22 2 9 101 44 127 80 54 9 2 5 48 39 18 87 127 8 8 5 0 2 0 0 0 0 0 0 0 0 5 5 5 2 0 0 0 0 8 24 15 4 1 1 0 0 15 21 20 8 8 2 0 5 1 0
0.056858435 -0.105 0.0094484556 0 0 0 0 0 0 0 0 4 0 0 1 4 5 17 6 84 9 0 1 2 2 7 93 47 1 1 13 8 2 5 109 9 0 0 0 0 0 6 8 27 4 2 42 87 34 39 15 120 18 4 22 28 11 9 77 59 6 5 105 46 1 2 43 25 6 6 1 1 4 31 39 35 2 2 14 30 94 120 82 120 17 12 26 17 113 120 42 58 11 18 120 23 28 4 25 22 5 7 1 3 15 23 106 55 12 18 4 0 10 35 113 14 19 18 4 30 120 95 16 27 7 3 5 27 120 47 9 1 0
0.057701077 -0.105 0.023193687 0 2 132 51 0 6 23 12 31 90 132 37 4 21 22 2 81 128 92 15 1 1 4 3 4 2 48 19 3 13 22 4 5 7 38 22 1 5 27 22 54 26 30 74 26 27 25 6 132 101 14 9 4 2 2 18 10 13 78 47 11 10 3 2 0 2 34 33 1 3 73 26 39 9 21 53 11 15 110 26 132 110 13 13 7 7 9 36 7 16 27 30 31 42 7 2 1 2 48 36 1 1 36 25 3 9 28 132 21 8 27 9 75 132 34 38 3 1 5 14 8 29 78 41 2 2 0 0 1 0
0.086904414 -0.105 0.023157822 0 0 127 95 9 12 24 3 9 63 127 74 40 16 3 0 41 127 106 35 5 1 0 0 1 3 37 51 12 14 11 0 0 0 26 56 39 15 31 7 38 24 6 104 127 15 3 2 127 72 3 12 11 8 4 31 11 4 9 25 38 53 11 5 0 0 72 104 12 16 23 0 41 8 8 89 26 34 49 7 127 127 4 3 1 17 9 30 16 36 21 10 6 63 21 4 0 2 41 10 4 20 39 2 2 4 30 26 16 45 51 2 92 87 7 17 15 21 2 7 25 47 62 45 0 0 0 1 1 0
0.17157687 -0.105 0.073671937 1 19 155 29 2 0 0 0 62 147 151 11 0 0 0 0 22 27 25 7 0 1 1 2 0 0 22 2 0 1 0 0 25 11 68 56 45 2 0 7 155 82 28 5 3 0 1 52 109 13 1 1 9 17 12 31 0 0 0 0 4 13 10 0 35 3 7 27 13 3 46 61 155 45 0 1 0 4 33 63 130 33 4 4 9 4 4 17 4 0 0 0 11 20 19 11 38 55 83 13 11 4 24 35 155 89 60 8 0 6 21 32 113 35 0 0 0 0 1 12 11 9 6 10 14 3 1 4 1 0
0.046568733 -0.105 0.042913392 40 15 7 14 4 0 2 2 174 21 1 0 0 0 1 15 27 0 0 0 0 0 25 24 7 1 0 0 0 1 35 8 67 6 0 3 22 12 1 2 174 7 0 0 1 0 10 63 63 0 0 0 0 3 103 93 19 1 0 1 6 43 161 70 67 6 2 15 32 10 1 3 174 19 0 1 2 0 1 11 157 20 2 1 2 4 17 28 59 45 51 40 19 17 18 26 34 6 4 15 10 1 32 39 174 17 1 0 0 0 5 49 94 22 20 27 2 1 6 5 1 8 51 47 2 0 0 0 1 0
0.15011494 -0.105 0.035463247 31 49 9 1 1 0 0 0 60 19 10 15 38 0 0 0 173 14 0 1 3 0 0 0 100 2 0 5 7 0 0 2 10 39 49 8 0 0 7 3 79 55 40 8 5 0 5 21 173 24 1 0 0 0 0 16 120 13 0 11 18 0 0 0 4 3 6 2 1 10 100 49 39 11 2 0 0 0 93 166 173 16 0 0 0 0 11 99 108 18 1 4 23 0 0 0 46 4 1 5 3 3 15 22 25 30 17 1 0 0 13 35 173 46 4 0 0 0 1 9 81 17 1 2 14 0 0 0 1 0
0.011794413 -0.105 0.016958931 16 84 75 27 40 1 1 5 8 129 129 1 0 12 25 8 0 129 129 0 4 63 61 1 0 42 117 7 14 128 48 0 14 3 7 39 84 1 0 9 61 39 38 1 1 4 51 85 5 87 119 0 1 67 87 18 0 79 129 5 5 31 15 0 23 1 0 21 29 10 14 24 129 32 0 0 0 1 8 43 27 24 4 9 30 48 24 8 0 1 0 8 40 34 8 0 3 0 0 0 1 20 88 21 58 4 0 0 0 9 47 32 30 5 1 21 38 1 1 10 0 0 0 10 28 0 0 0 1 0
0.011794413 -0.105 0.016958931 19 0 0 1 100 54 5 17 40 1 0 1 26 4 11 30 3 0 1 1 0 0 56 31 1 1 4 3 1 3 48 10 79 1 0 0 144 91 2 21 139 26 6 4 90 15 3 21 20 6 33 64 16 2 14 16 19 20 54 33 1 1 5 2 98 12 1 2 144 50 0 2 30 87 49 18 144 16 0 0 4 24 109 96 3 0 1 0 36 45 47 14 0 0 0 1 60 41 23 39 144 25 0 0 0 8 10 12 144 36 34 12 0 4 15 9 0 4 95 25 23 10 3 0 0 4 53 25 1 0
0.095435098 -0.105 0.088219158 3 23 124 37 24 24 7 3 2 1 20 26 31 49 19 10 0 0 0 0 4 22 84 10 26 2 0 0 0 12 27 6 13 8 43 20 3 3 5 5 131 7 12 10 1 6 65 131 20 1 0 3 16 78 131 57 8 0 0 0 26 131 73 3 37 5 19 3 0 0 0 6 131 120 3 5 2 2 5 34 62 63 12 56 69 27 19 12 0 4 7 38 119 52 2 0 8 2 0 0 0 2 52 45 89 105 9 1 0 17 50 10 29 82 110 59 14 2 0 0 0 2 49 105 28 0 0 0 1 0
0.17488176 -0.105 0.096524738 49 69 0 0 5 6 0 1 19 19 3 0 0 2 12 12 41 55 0 0 0 5 9 1 93 121 0 0 7 13 0 0 103 36 0 12 20 4 1 26 121 21 1 1 5 24 43 59 13 14 1 4 41 70 28 5 89 121 2 0 4 2 2 20 62 36 8 4 2 1 3 72 91 115 24 9 7 4 7 45 4 20 15 31 60 18 64 97 25 10 0 0 4 1 83 121 21 24 4 1 2 9 62 121 14 19 4 0 0 0 109 121 1 2 1 1 0 0 110 121 0 0 0 0 0 0 45 77 1 0
0.058745325 -0.105 0.10559464 147 96 17 0 0 0 0 3 20 98 147 0 0 0 1 2 0 23 147 10 0 1 2 0 0 4 136 10 0 0 0 0 147 17 1 0 0 0 0 18 112 23 17 0 1 6 27 59 7 7 36 1 27 59 44 29 1 3 37 2 7 26 24 42 147 4 0 0 0 0 0 17 147 22 0 2 6 3 3 14 33 8 0 7 62 34 16 39 11 1 1 3 19 28 14 61 147 0 0 0 0 0 0 16 147 20 0 0 0 0 0 6 28 18 1 0 3 7 5 9 3 2 2 11 13 2 2 5 1 0
0.036970921 -0.105 0.12771998 0 0 0 0 0 0 0 0 0 0 0 1 0 0 17 9 27 2 0 0 0 6 21 3 143 16 0 0 0 0 0 0 13 0 0 0 0 0 0 6 104 2 0 0 1 20 83 139 26 0 0 0 47 143 108 36 143 15 0 0 7 25 4 4 31 2 0 0 0 0 0 1 143 29 0 1 4 13 7 36 83 9 1 27 103 143 17 14 98 5 0 8 33 89 15 11 17 0 0 0 0 0 0 9 143 19 1 2 6 2 0 80 59 8 2 71 129 20 1 16 46 8 1 38 49 9 0 0 1 0
0.08717569 -0.105 0.036013406 28 35 21 2 5 3 1 1 70 12 12 18 72 8 0 0 177 19 0 2 7 0 0 2 36 0 0 0 0 2 6 4 8 86 64 2 0 1 5 2 87 22 78 31 23 0 5 13 177 30 2 3 3 0 0 13 57 3 0 0 0 1 6 6 4 13 8 2 1 23 133 20 43 8 19 2 0 0 107 132 177 13 2 0 0 0 17 103 65 0 0 0 0 0 42 50 2 18 15 5 1 7 36 4 25 18 9 9 4 0 19 21 177 41 5 3 0 0 1 11 102 18 0 0 0 0 9 22 1 0
0.11811963 -0.105 0.023695618 0 0 114 11 6 32 99 1 35 63 114 11 35 58 15 0 130 134 41 8 11 3 0 0 9 7 32 13 10 15 10 1 0 7 87 41 15 12 18 2 43 15 19 97 79 24 1 1 134 64 6 8 6 2 0 15 37 12 38 13 10 9 1 2 0 1 53 30 18 24 38 1 71 21 17 83 70 16 2 5 134 85 9 8 14 8 4 60 11 11 48 19 25 28 11 5 0 0 3 29 76 31 37 0 41 20 1 45 111 15 1 0 134 125 4 2 4 1 0 0 24 24 11 16 13 11 4 0 1 0
0.1097687 -0.105 0.030491363 0 0 18 67 155 15 2 0 0 0 79 128 20 4 12 11 0 5 119 33 2 22 21 4 0 7 93 44 2 15 17 2 3 0 1 11 155 53 0 2 50 1 3 13 79 27 28 68 4 0 0 1 31 77 49 18 13 0 0 1 17 41 38 23 4 0 0 0 155 68 0 1 129 11 0 0 119 25 2 16 19 5 0 6 101 18 2 3 38 3 1 1 36 13 5 14 0 0 0 0 155 84 2 1 39 1 0 0 86 43 6 34 8 1 0 1 45 35 14 7 10 0 0 0 4 8 25 45 1 0
0.1097687 -0.105 0.030491363 7 7 22 52 14 0 0 0 45 29 16 6 3 0 0 5 55 20 6 37 27 0 0 1 163 28 2 6 1 0 0 0 38 9 5 19 37 1 0 2 91 13 3 4 12 2 0 17 108 7 2 30 123 1 0 7 163 10 0 3 6 0 0 13 19 47 39 14 4 0 7 3 38 73 48 16 3 0 2 2 111 13 29 69 44 0 3 13 163 1 0 1 2 0 0 28 2 10 7 0 0 27 122 24 3 18 16 3 0 7 138 23 47 2 13 9 0 0 92 113 163 1 0 0 0 0 12 70 1 0
0.15182404 -0.105 0.014114891 0 27 89 16 7 23 13 0 30 5 37 45 50 28 1 16 131 33 12 3 8 15 16 89 19 43 90 3 3 27 15 3 0 5 19 4 14 96 32 0 70 20 9 12 54 58 8 13 131 94 4 6 10 22 14 62 9 12 26 17 15 68 40 2 0 18 77 13 19 14 10 2 75 14 23 39 123 23 1 9 131 57 19 6 12 2 0 33 15 12 42 21 19 15 15 3 0 23 131 11 1 0 0 0 21 41 78 46 11 0 0 4 56 131 128 4 1 0 0 4 1 51 131 6 0 1 4 1 1 0
0.087899186 -0.105 0.015159073 0 13 127 40 3 16 14 0 11 1 67 117 8 16 15 17 130 7 12 18 3 4 9 130 47 0 3 22 22 14 6 46 0 2 6 2 8 81 67 0 60 8 2 10 47 78 29 21 130 75 6 3 9 13 11 123 13 17 8 6 43 84 7 16 2 41 105 13 12 35 19 4 74 4 38 53 79 50 3 19 130 45 15 4 5 2 0 40 15 31 61 6 5 13 0 0 6 18 46 21 19 34 19 16 42 16 34 26 8 8 41 79 77 38 80 26 3 2 14 28 6 16 128 18 1 4 8 10 1 0
0.051160067 -0.105 0.048013039 147 1 0 1 1 0 4 51 37 0 0 0 2 18 69 46 4 0 0 0 0 13 118 53 2 0 0 0 0 57 95 7 147 0 0 0 1 0 1 41 115 2 0 9 25 16 16 29 147 23 6 5 5 14 51 89 10 5 7 33 61 104 57 14 147 1 0 0 0 0 0 33 116 4 3 5 12 23 21 11 70 71 70 23 9 9 10 4 3 13 79 108 25 1 0 0 147 9 2 0 0 0 8 47 58 16 36 31 2 2 2 3 0 2 40 45 7 2 1 0 0 0 28 24 0 0 0 0 1 0
0.16855352 -0.105 0.026070351 29 12 7 31 19 0 0 3 64 2 8 70 31 0 0 39 82 17 5 5 1 0 22 62 24 37 20 7 0 1 45 27 15 4 4 73 56 0 3 9 137 13 7 50 20 0 0 48 60 24 14 45 43 0 0 31 83 71 30 10 2 0 0 16 25 3 2 79 112 0 0 2 137 21 5 28 24 0 0 17 41 14 26 114 66 0 0 2 137 56 47 23 3 0 0 46 44 12 15 96 46 0 0 1 137 26 9 29 16 0 0 15 27 3 7 105 80 0 0 5 137 4 4 20 8 0 0 119 1 0
0.16215317 -0.105 0.082935244 0 7 88 0 0 0 0 0 3 8 88 0 0 0 10 9 0 12 73 0 0 9 14 2 9 65 41 0 0 1 0 0 27 24 72 0 0 2 9 4 126 27 13 2 3 11 51 94 10 4 5 14 69 113 73 26 20 21 6 2 18 19 3 3 23 3 3 0 0 44 126 26 126 42 9 12 6 8 112 86 17 16 10 71 104 54 81 14 0 0 1 6 21 28 108 26 0 0 0 1 3 48 126 5 5 0 0 0 1 16 126 50 1 0 0 1 4 53 126 20 1 0 0 0 0 24 126 34 1 0
0.012570049 -0.105 0.0050561521 23 4 8 0 4 8 2 1 168 9 1 3 30 5 4 21 37 3 0 12 168 22 5 6 0 0 0 0 14 0 0 0 36 0 0 0 33 38 4 4 168 2 0 1 49 3 0 20 46 1 0 7 168 4 0 3 0 0 0 0 18 0 0 0 37 0 0 15 67 11 0 1 168 11 0 9 50 0 0 5 38 4 0 34 168 0 0 0 0 0 0 1 16 0 0 0 25 0 2 7 41 5 1 3 168 22 4 15 34 0 0 7 19 5 3 49 168 0 0 0 0 0 0 1 9 0 0 0 1 0
0.012570049 -0.105 0.0050561521 11 0 0 0 0 0 0 1 169 0 0 0 22 6 3 44 31 0 0 5 169 25 4 12 42 6 1 3 22 0 2 7 17 0 0 0 0 0 0 0 169 1 0 0 39 5 0 26 49 1 0 2 169 17 0 7 68 13 1 0 36 0 0 14 17 0 0 0 0 0 0 0 169 9 0 2 44 1 0 4 51 4 0 12 169 4 0 1 30 38 4 3 38 0 0 0 11 0 0 0 0 0 0 0 169 23 4 5 31 3 0 8 35 6 5 19 169 13 1 3 3 7 2 1 25 4 8 1 1 0
0.13242126 -0.105 0.13164468 131 5 0 0 11 1 0 20 101 4 0 3 131 20 0 16 131 1 0 0 52 4 0 7 2 0 0 0 0 0 0 0 131 9 2 5 14 1 0 22 99 11 6 82 131 11 0 12 131 2 0 10 46 1 0 10 3 0 0 0 0 0 0 0 131 2 0 1 16 6 1 12 87 2 1 19 131 54 1 9 131 8 0 2 34 7 0 2 2 0 0 0 0 0 0 0 131 17 2 2 11 3 0 11 70 12 5 31 131 16 0 7 131 0 0 4 35 1 0 2 1 0 0 0 0 0 0 0 1 0
0.14427289 -0.105 0.1315199 133 0 0 0 15 4 0 24 93 0 0 5 133 43 1 16 133 2 0 1 56 5 0 6 6 0 0 0 0 0 0 0 133 53 7 5 15 2 1 21 96 37 19 101 133 18 3 13 133 2 0 15 54 1 0 11 5 0 0 0 0 0 0 0 133 44 9 6 13 4 4 47 73 30 19 84 133 41 11 29 133 21 0 9 33 3 0 2 2 0 0 0 0 0 0 0 83 22 5 3 9 4 3 38 39 15 10 35 106 44 7 21 93 22 0 3 19 4 0 0 0 0 0 0 0 0 0 0 1 0
0.096761473 -0.105 0.0564784 0 0 0 0 0 22 54 38 3 0 0 0 0 4 113 99 1 0 0 0 0 79 113 11 25 5 2 2 4 57 26 6 37 3 0 0 1 6 14 81 113 7 0 1 8 14 52 112 15 1 0 2 89 113 61 21 0 0 1 2 95 110 6 0 62 72 10 4 3 0 0 8 113 94 11 13 13 1 0 8 20 26 17 51 113 16 0 2 0 0 0 51 113 16 0 0 14 105 10 1 0 0 0 0 25 113 61 2 0 0 0 0 2 27 91 93 10 0 0 0 0 0 8 113 35 2 0 0 1 0
0.17159313 -0.105 0.035737824 21 7 6 12 31 4 1 4 40 38 17 23 19 1 0 3 184 9 2 12 9 0 0 5 95 11 0 0 0 0 0 1 25 14 2 23 71 3 0 1 55 33 45 55 30 0 0 2 184 34 15 14 3 0 0 4 125 3 0 0 0 0 0 17 35 8 0 18 82 0 0 0 82 7 6 48 81 0 0 0 184 9 2 5 5 0 0 13 142 1 0 0 0 0 0 11 25 10 10 28 49 0 0 0 82 1 2 19 78 1 0 2 184 0 0 0 4 0 0 13 110 1 0 0 0 0 0 10 1 0
0.18090388 -0.105 0.079185352 6 51 87 0 0 0 0 1 13 35 67 16 8 2 1 5 0 13 26 12 9 1 0 0 0 7 9 1 0 0 0 0 0 103 143 10 1 1 0 0 15 131 143 35 0 0 0 0 94 143 95 5 0 0 0 0 7 13 22 7 0 0 0 0 0 9 44 28 42 34 4 0 115 37 94 40 14 4 4 27 143 52 11 1 0 0 0 64 20 5 9 1 0 3 5 6 6 6 32 16 19 6 8 5 114 11 2 3 8 6 36 117 143 1 0 0 0 0 10 143 4 0 0 2 14 10 17 17 1 0
0.17993425 -0.105 0.02685022 15 1 0 47 115 0 0 4 129 14 0 11 23 0 0 16 70 8 2 57 72 0 0 4 34 13 28 65 32 0 0 5 23 11 10 108 98 0 0 1 129 19 6 18 12 0 0 20 51 5 5 85 112 0 0 4 109 1 0 63 73 0 0 30 37 16 23 78 16 0 0 0 129 63 77 22 1 0 0 1 10 25 120 85 38 0 0 0 129 3 11 28 54 0 0 71 7 6 3 3 0 4 6 1 11 23 52 10 0 1 2 2 12 23 63 10 0 0 1 11 129 7 10 5 2 0 0 101 1 0
0.079244442 -0.105 0.076427415 52 0 0 0 0 0 0 39 37 0 0 0 0 0 49 124 3 0 0 8 43 39 113 99 1 4 4 16 56 26 6 2 124 4 0 0 0 0 0 25 124 41 9 8 7 0 11 113 38 11 13 124 124 27 37 48 20 10 7 76 72 11 8 9 93 37 2 0 0 0 0 2 93 124 124 17 4 3 5 2 20 95 124 93 83 23 28 4 8 8 20 27 27 38 55 16 39 16 0 0 0 0 0 8 28 19 11 2 1 4 19 29 10 41 27 4 2 16 30 10 0 8 46 26 6 15 12 0 1 0
0.079244442 -0.105 0.076427415 0 0 0 0 0 0 43 35 1 0 0 0 0 0 92 67 0 0 0 0 0 21 138 21 0 0 0 0 0 47 42 2 16 4 1 2 6 11 26 47 138 24 6 1 3 0 82 138 11 8 24 3 11 90 138 80 0 0 2 3 40 138 47 0 22 2 0 5 29 30 16 19 138 80 79 16 27 8 11 77 16 85 138 39 26 26 28 15 1 14 97 74 59 62 4 0 21 18 2 15 26 2 0 6 41 47 22 24 53 13 4 19 3 25 59 17 33 20 26 12 7 12 37 25 2 0 5 14 1 0
0.079244442 -0.105 0.076427415 2 12 27 6 1 4 14 13 1 2 23 33 22 16 19 4 1 1 4 5 20 55 20 5 0 0 0 0 44 43 1 0 19 19 45 13 2 21 48 56 69 16 24 11 9 67 138 91 7 1 2 0 74 138 131 29 0 0 0 0 84 80 1 0 49 20 41 26 26 10 2 15 138 56 26 21 23 16 17 60 32 7 10 85 138 97 12 8 0 0 0 21 138 28 0 0 29 22 3 0 7 17 6 9 113 83 45 44 4 1 2 13 4 9 36 138 53 0 0 0 0 0 0 51 41 2 0 0 1 0
0.15198655 -0.105 0.010619881 0 1 20 4 6 43 53 0 47 24 11 25 15 28 21 9 134 134 22 10 6 14 17 40 11 15 22 21 21 44 35 4 0 12 35 10 18 48 49 3 53 7 6 19 113 79 6 1 134 35 2 2 11 3 0 9 45 7 9 16 34 19 7 3 0 14 134 28 7 12 46 1 35 17 56 91 99 30 8 1 134 134 61 9 11 2 0 12 23 34 134 41 14 7 3 6 0 9 112 12 0 1 12 0 3 9 54 39 1 0 7 12 8 75 61 3 0 0 13 15 0 14 134 11 0 0 20 3 1 0
0.012312569 -0.105 0.028619774 4 21 10 13 9 7 74 17 4 27 18 39 9 15 92 14 47 6 18 33 12 38 36 37 70 0 0 0 24 88 22 56 4 42 31 79 95 13 6 2 21 77 79 127 29 1 0 1 127 31 36 58 5 0 0 29 124 7 3 14 41 18 2 27 14 52 90 123 20 0 0 1 70 51 41 64 63 2 0 4 127 31 20 15 11 0 0 26 113 22 32 15 7 0 0 10 1 28 18 21 1 0 18 3 62 35 34 13 1 0 9 14 127 38 29 20 12 1 0 9 127 56 42 15 7 1 0 1 1 0
0.080546252 -0.105 0.021311363 18 1 3 43 28 3 6 49 1 9 27 86 36 1 1 2 80 7 21 73 19 0 0 95 68 3 6 3 0 0 0 87 9 10 35 109 16 0 0 4 40 7 5 104 65 0 1 7 126 12 1 21 11 0 0 123 34 6 4 4 2 5 8 40 27 31 48 48 7 17 34 2 78 21 7 99 45 9 2 5 126 117 14 4 1 0 0 10 24 91 31 6 7 2 2 4 7 5 5 8 21 120 126 27 26 12 1 11 40 126 42 4 100 70 24 6 0 11 11 5 30 89 45 24 4 0 0 0 1 0
0.20156558 -0.105 0.054457452 0 0 0 0 0 0 0 0 0 0 0 0 0 0 2 20 18 0 0 0 0 0 31 155 55 4 0 17 10 4 4 138 6 0 0 0 0 0 0 1 155 4 0 0 0 0 7 133 42 1 0 14 22 2 30 155 0 0 0 62 24 0 3 20 20 1 0 33 73 27 5 6 155 49 1 7 21 16 6 34 114 30 7 54 38 0 0 14 0 0 1 48 37 0 0 0 7 0 3 155 95 5 5 27 155 21 1 14 18 2 4 116 64 16 7 39 11 0 0 11 0 0 1 29 18 0 0 0 1 0
0.1596901 -0.105 0.0043262178 0 0 0 0 1 2 0 0 14 2 0 0 17 30 3 22 41 36 20 3 0 6 96 138 0 5 44 11 0 10 156 14 0 0 0 0 5 1 0 0 101 3 0 1 53 13 0 24 156 35 5 2 3 8 65 156 10 10 19 9 3 17 156 21 0 0 0 0 8 1 0 0 119 3 0 3 68 12 0 8 156 48 8 2 3 1 2 40 30 19 28 31 44 4 4 13 0 0 0 1 6 0 0 0 104 0 0 6 41 5 0 17 156 5 1 1 6 5 2 83 26 1 1 6 81 23 2 14 1 0
0.055557612 -0.105 0.016462693 28 58 77 26 10 4 3 18 14 24 79 122 30 15 8 14 0 0 122 90 8 9 0 0 8 5 111 75 25 15 0 0 9 59 122 16 2 19 9 0 62 38 116 80 4 17 26 36 4 0 62 53 41 122 35 10 25 19 58 30 13 67 9 0 18 3 1 1 65 69 17 0 122 20 0 0 16 16 5 20 39 1 0 0 35 122 27 9 6 2 0 0 24 122 21 0 8 1 0 3 85 35 0 0 122 38 0 0 21 15 0 1 47 18 3 13 11 31 2 1 1 0 0 1 85 70 1 0 1 0
0.055557612 -0.105 0.016462693 85 13 1 42 49 1 0 6 122 41 0 0 0 0 0 17 32 6 0 36 29 3 11 11 19 0 0 94 74 2 2 7 69 19 0 17 28 42 45 8 122 67 6 7 0 1 4 20 48 11 10 122 57 0 0 7 44 0 0 96 44 0 0 51 14 1 0 0 0 122 122 10 69 44 23 14 2 66 122 17 16 13 27 122 42 59 25 4 81 28 0 16 7 2 1 48 28 7 0 0 0 24 34 10 17 9 12 14 20 62 122 39 3 2 4 14 82 122 59 3 31 41 1 0 1 53 32 2 1 0
0.16285239 -0.105 0.13103896 0 0 0 2 1 0 0 0 30 4 7 97 63 0 0 0 141 10 1 23 38 3 0 19 30 2 1 50 141 6 0 5 0 0 0 4 4 0 0 0 62 7 3 58 69 0 0 1 141 48 7 49 39 0 0 10 17 8 4 132 141 0 0 0 0 0 2 5 0 0 0 0 84 4 9 43 10 1 0 20 141 26 4 22 61 13 4 76 5 3 2 49 141 10 1 2 0 0 0 0 9 7 0 0 107 8 0 2 26 13 0 8 141 31 12 55 54 4 1 26 5 0 1 67 124 2 0 1 1 0
0.16721942 -0.105 0.0043750918 0 0 0 0 12 4 0 0 138 25 0 0 46 17 0 2 180 102 12 3 1 1 2 14 16 16 27 28 35 5 4 7 0 0 0 1 11 2 0 0 144 6 0 4 66 13 0 3 180 16 0 0 5 5 3 48 42 3 0 3 103 40 4 17 0 0 0 0 4 1 0 0 119 8 0 0 46 22 0 4 180 104 15 1 2 4 1 17 36 29 23 6 67 39 2 8 0 0 0 0 1 0 0 0 61 3 0 0 35 16 0 2 180 41 3 0 3 1 5 54 39 14 5 0 36 12 12 44 1 0
0.10446536 -0.105 0.006672333 44 0 0 0 0 0 3 46 69 11 1 3 37 64 34 75 120 64 1 1 16 16 0 3 38 14 0 0 0 0 0 17 113 41 3 0 0 0 1 26 118 69 28 120 119 47 19 42 120 21 2 35 50 12 0 7 70 6 7 6 2 0 0 11 102 16 1 0 1 0 0 9 106 30 12 66 115 1 0 13 120 48 10 20 21 0 0 36 35 23 48 25 4 0 0 3 78 1 0 0 2 4 7 56 50 12 2 11 120 66 19 39 33 120 37 7 31 6 0 1 10 75 63 20 0 0 0 0 1 0
0.088227861 -0.105 0.011307853 0 0 2 11 5 25 70 1 36 13 6 37 17 34 37 8 139 139 14 7 4 5 7 43 19 45 27 18 24 32 11 6 0 1 15 9 11 80 54 0 40 3 4 25 88 122 11 2 139 40 2 2 11 6 0 17 57 29 22 9 0 0 0 4 0 14 139 22 7 19 14 1 35 4 71 95 83 13 13 19 139 56 14 7 11 1 11 23 37 25 70 46 2 0 0 0 1 6 57 30 17 82 54 8 28 32 40 14 1 11 77 112 39 31 51 35 20 33 79 65 2 14 88 35 9 7 5 2 1 0
0.12811902 -0.105 0.12749459 57 5 0 0 32 6 0 4 137 32 0 0 35 15 5 20 46 9 0 0 137 53 2 1 102 18 0 0 7 2 0 0 54 4 0 0 57 11 0 1 137 25 0 1 25 10 0 18 56 4 0 4 137 61 0 6 137 12 0 0 21 5 0 1 49 2 0 0 80 17 0 1 137 42 5 15 15 2 0 8 38 12 5 63 137 14 0 1 137 18 0 4 26 2 0 0 25 2 0 0 86 17 0 0 137 26 0 3 6 7 1 3 30 4 0 11 101 62 1 2 94 20 0 0 21 10 0 0 1 0
0.1363674 -0.105 0.020017555 81 19 25 10 6 2 0 47 25 5 6 42 38 1 0 12 99 5 6 24 32 2 1 35 61 8 12 11 1 2 1 21 95 2 1 10 28 4 1 85 21 12 30 129 124 1 0 9 129 50 33 37 9 0 1 20 59 12 3 4 2 21 20 15 76 11 31 61 23 0 0 17 54 4 15 129 129 0 0 17 129 50 15 10 18 1 1 49 83 79 15 0 2 3 4 3 10 1 19 76 48 0 0 8 84 0 7 65 58 0 0 41 129 11 9 22 29 7 3 85 94 79 16 11 14 2 0 1 1 0
0.0026315209 -0.105 0.071962558 1 0 0 127 127 0 0 0 88 0 1 104 59 0 14 127 34 2 8 52 13 15 127 127 0 0 9 19 5 7 43 25 10 0 0 63 127 9 0 3 127 25 5 21 67 6 0 65 63 12 18 127 86 1 1 18 0 0 11 29 6 0 0 0 4 0 0 21 127 31 0 0 92 85 61 21 63 25 0 2 10 29 56 29 31 0 0 0 0 0 0 0 1 0 0 0 0 0 0 93 65 5 0 0 0 3 18 93 63 5 0 0 0 1 9 3 0 0 0 0 0 0 0 0 0 0 0 0 1 0
0.19701689 -0.105 0.12714115 0 0 1 25 153 1 0 0 0 5 21 6 15 4 10 1 0 1 21 11 2 5 6 0 11 3 10 7 0 1 2 0 8 2 0 15 153 3 0 2 66 5 2 4 29 21 76 66 12 0 7 6 61 92 70 25 30 1 3 3 21 38 31 27 23 4 0 3 153 16 0 0 153 23 0 7 64 7 5 22 58 7 0 21 153 23 5 10 65 11 0 19 80 13 4 9 12 3 0 11 153 12 0 0 144 64 6 13 47 2 0 3 40 16 4 27 134 15 0 6 51 5 0 8 67 13 1 8 1 0
0.19701689 -0.105 0.12714115 66 15 1 9 50 6 0 7 135 17 0 5 39 18 5 25 50 3 0 2 142 67 5 12 152 18 0 0 10 2 0 8 81 13 3 8 65 13 0 17 152 25 5 10 59 8 0 18 64 8 5 20 152 28 0 6 152 24 0 0 21 4 0 2 22 38 32 27 32 2 3 3 62 92 71 26 13 0 6 6 28 21 77 67 65 6 2 4 152 8 0 2 8 2 0 11 0 2 2 1 13 4 9 7 3 5 7 0 0 0 21 11 13 4 10 1 0 5 22 6 152 1 0 0 0 0 1 20 1 0
0.083933972 -0.105 0.076998152 8 7 17 6 0 2 23 34 10 19 33 8 4 29 92 50 6 5 50 18 10 67 115 37 11 13 15 1 7 55 88 25 45 11 7 9 7 0 7 29 33 41 122 55 22 14 23 24 126 51 35 15 12 34 78 97 30 3 0 3 126 126 69 28 43 22 0 4 19 9 0 0 49 11 8 15 44 34 12 29 126 67 27 23 5 2 4 84 33 9 29 126 126 16 0 3 12 44 5 0 1 7 6 1 19 35 14 0 4 30 14 6 70 79 35 25 5 1 5 10 1 7 34 126 21 0 0 0 1 0
0.0024583642 -0.105 0.0052589416 45 0 0 11 56 2 0 2 182 15 1 5 12 0 0 19 64 9 2 58 182 1 0 5 0 0 0 11 96 0 0 0 53 1 0 7 53 13 9 12 182 37 8 13 22 1 2 34 57 13 9 104 182 1 0 4 0 0 0 14 93 0 0 0 16 4 1 4 5 9 9 8 122 100 48 21 5 0 2 14 10 20 51 153 126 0 0 0 0 0 0 14 30 0 0 0 0 0 0 0 0 0 0 0 0 0 0 0 0 0 0 0 0 0 0 0 0 0 0 0 0 0 0 0 0 0 0 0 1 0
0.0024583642 -0.105 0.0052589416 0 0 0 0 0 0 0 0 0 0 0 0 0 0 0 0 0 0 0 0 0 1 0 0 0 0 0 0 0 0 0 0 29 0 0 0 0 0 0 7 130 3 0 0 9 22 49 118 6 0 2 8 134 120 50 20 13 14 15 9 22 5 0 5 70 5 0 0 0 0 0 2 179 37 0 0 32 16 9 47 43 4 0 6 179 112 9 12 47 15 5 5 78 16 0 2 36 3 0 0 0 0 0 0 179 40 0 0 14 7 1 7 62 6 0 1 179 87 2 6 34 5 0 0 102 20 0 1 1 0
0.0042098025 -0.105 0.037421335 0 0 0 0 0 0 2 0 13 0 0 0 0 7 3 1 70 4 0 0 1 0 0 3 8 4 1 1 9 28 15 0 19 8 2 0 1 18 41 26 106 2 0 0 40 121 33 19 172 16 0 0 5 11 1 29 47 7 1 1 8 30 35 16 83 11 10 19 21 62 35 28 127 10 1 1 49 172 31 41 172 24 0 0 13 50 10 32 75 2 0 0 0 2 21 30 107 24 23 65 16 2 0 13 110 27 7 14 60 34 3 15 172 41 0 2 37 22 2 6 101 15 0 0 0 0 7 6 1 0
0.10312594 -0.105 0.020135056 43 31 0 0 34 119 8 8 81 119 1 0 9 61 12 10 32 43 4 2 4 30 51 44 9 4 0 0 23 78 7 12 29 84 3 0 31 119 3 3 46 119 3 0 54 119 2 3 119 119 12 2 2 8 13 22 19 5 0 4 17 27 12 8 14 106 6 0 49 98 0 0 48 65 3 0 42 119 25 21 119 38 0 0 2 30 19 74 27 10 2 3 19 24 4 5 11 11 1 1 35 119 17 1 61 38 0 0 3 46 47 20 68 48 0 0 5 25 27 18 48 23 1 6 23 22 33 37 1 0
0.10312594 -0.105 0.020135056 70 6 0 11 98 13 2 18 83 4 0 6 134 19 3 15 134 11 0 1 67 22 11 43 32 0 0 1 47 48 45 39 102 24 0 21 129 1 0 4 105 18 1 21 134 9 3 13 134 43 2 2 34 14 12 54 21 6 3 4 15 25 41 25 76 2 0 6 88 42 10 41 55 2 0 7 100 56 40 99 99 6 0 2 12 12 34 134 10 1 3 15 30 14 8 16 15 2 0 5 17 60 35 17 69 0 0 3 21 33 18 56 44 2 1 5 14 7 12 49 1 1 3 19 30 13 2 0 1 0
0.10312594 -0.105 0.020135056 30 13 3 0 1 2 3 18 14 7 12 49 46 2 0 5 21 33 18 55 69 0 0 3 17 60 35 17 15 2 0 5 30 14 8 16 10 1 3 15 12 12 33 134 100 6 0 2 100 56 39 98 56 2 0 7 88 42 9 39 77 2 0 6 15 25 40 25 21 7 3 4 33 14 12 53 134 45 2 2 134 10 3 12 105 19 1 19 129 1 0 3 102 25 0 19 46 48 45 40 32 0 0 1 66 22 12 41 134 11 0 0 134 20 3 14 85 4 0 5 96 14 2 18 71 6 0 10 1 0
0.043914411 -0.105 0.0065219877 0 0 0 1 28 101 24 0 47 16 0 0 113 114 6 1 86 51 5 24 92 10 0 2 0 0 0 7 58 3 0 0 15 5 2 8 65 34 3 5 38 4 0 2 124 54 1 1 124 11 0 3 89 59 7 21 1 0 0 0 83 43 1 1 18 23 9 28 38 11 0 3 20 1 1 22 124 124 4 5 124 31 1 5 115 76 7 12 9 3 1 6 124 35 1 0 17 4 1 4 17 18 3 5 3 1 1 6 97 45 1 4 57 48 6 16 123 26 0 7 7 8 3 22 109 16 0 2 1 0
0.043914411 -0.105 0.0065219877 74 0 0 0 0 0 1 34 116 6 0 11 80 35 10 56 127 14 1 5 16 5 0 25 38 13 1 4 10 4 1 4 127 11 0 1 2 0 0 16 127 39 5 57 127 5 1 16 127 84 3 13 30 0 3 24 37 9 1 6 16 13 12 33 101 16 0 3 2 0 0 13 106 28 3 59 127 3 1 17 127 19 1 5 22 0 0 54 56 10 0 11 23 9 5 20 84 0 0 0 8 4 3 41 72 12 0 12 127 22 6 27 127 92 3 1 12 0 0 15 33 49 5 1 1 1 2 9 1 0
0.016524615 -0.105 0.032237221 18 38 30 80 28 3 0 4 146 17 22 53 6 0 0 33 82 17 12 18 35 3 0 30 146 0 0 6 35 5 1 21 41 22 17 44 89 9 1 10 146 15 5 10 22 0 3 32 52 20 34 22 13 5 16 25 146 2 4 5 15 3 0 10 29 29 37 29 8 0 0 1 146 26 15 25 17 0 0 5 62 61 91 70 30 1 1 2 146 38 9 3 1 0 0 5 15 3 1 0 0 0 31 22 141 14 7 5 30 4 4 30 70 19 7 11 62 13 4 8 146 23 0 0 0 0 0 8 1 0
0.039667007 -0.105 0.020390831 80 10 4 24 65 14 1 10 68 5 0 10 139 96 3 10 139 25 2 10 41 11 0 6 49 16 6 32 13 2 0 5 94 41 2 38 89 10 0 11 84 29 4 79 139 13 2 11 139 26 1 15 57 3 2 24 42 21 5 15 17 3 1 7 37 8 0 11 58 40 53 61 37 4 0 9 139 38 22 71 115 14 4 3 18 11 20 139 29 8 7 8 12 15 12 21 7 19 21 7 24 6 19 10 29 2 1 10 125 13 18 61 38 11 19 8 10 28 24 56 5 30 28 23 11 7 0 1 1 0
0.039667007 -0.105 0.020390831 12 11 1 1 4 25 27 25 11 28 28 59 47 9 15 6 131 18 13 50 28 2 1 6 16 9 24 16 6 15 21 6 10 14 13 20 29 11 9 11 19 12 16 136 120 17 4 2 136 51 19 66 41 7 0 7 63 40 45 57 44 12 0 12 17 5 2 7 35 22 5 13 51 3 2 15 136 43 1 10 136 20 2 7 84 32 4 58 89 14 0 7 95 48 2 29 16 3 0 4 39 19 6 27 30 8 0 0 136 43 2 11 136 112 2 6 73 9 0 5 64 22 2 6 79 13 4 18 1 0
0.055841848 -0.105 0.10123877 1 0 11 6 1 15 86 38 23 1 4 1 19 48 33 11 123 4 0 0 9 29 21 75 26 2 0 0 59 123 28 25 62 28 4 5 27 34 89 82 60 3 2 5 123 123 26 21 123 22 2 3 18 13 2 79 21 11 5 11 60 60 19 11 93 123 16 14 10 1 0 4 24 7 12 16 108 105 47 19 123 36 17 13 17 29 50 39 10 24 20 24 31 9 0 3 114 123 8 1 0 0 0 1 20 45 64 12 1 13 14 4 12 15 21 9 20 19 17 7 28 4 3 3 12 14 3 24 1 0
0.055841848 -0.105 0.10123877 36 16 2 16 11 9 9 15 17 11 10 20 13 15 13 12 9 17 12 3 14 33 39 6 0 0 0 2 125 60 24 0 38 10 4 3 7 13 17 29 16 19 33 75 125 23 17 13 108 89 47 26 19 5 15 18 6 4 2 7 125 62 16 7 125 49 12 52 46 5 3 9 42 5 5 125 125 2 0 2 125 45 22 24 23 2 9 33 15 6 33 32 125 42 13 11 50 79 42 61 30 0 0 0 13 7 9 85 54 1 1 0 64 85 87 7 1 0 2 1 2 19 125 52 33 1 1 0 1 0
0.023176199 -0.105 0.0048784637 1 3 55 14 1 0 0 1 10 15 24 33 10 2 16 11 9 15 9 34 43 13 13 2 0 0 0 3 10 1 0 0 23 6 27 5 1 1 0 9 137 7 6 3 7 25 102 150 11 2 1 6 135 169 98 28 0 0 0 0 25 13 0 0 63 11 10 1 0 0 0 0 169 29 2 7 30 6 6 26 42 9 2 26 169 37 6 6 0 0 0 0 66 2 0 0 58 2 0 0 4 3 0 1 169 5 0 1 24 2 1 12 33 1 0 5 169 13 1 2 0 0 0 0 55 0 0 0 1 0
0.023176199 -0.105 0.0048784637 43 0 0 0 0 0 0 1 168 4 1 2 24 1 0 12 33 2 1 25 168 2 0 2 3 3 0 4 69 1 0 0 60 2 0 0 0 0 0 1 168 33 6 7 39 8 2 39 32 6 6 33 168 18 2 9 0 0 0 1 70 9 8 0 26 13 0 0 0 0 0 1 136 168 99 27 10 2 2 8 7 25 102 151 138 6 6 3 1 1 0 9 24 6 26 4 13 1 0 0 0 0 0 5 39 12 13 2 10 16 10 36 9 1 17 11 9 13 28 32 1 0 0 1 1 3 59 10 1 0
0.024605719 -0.105 0.12751438 49 0 0 0 5 5 21 26 128 8 0 1 6 9 6 34 12 0 0 29 128 75 7 7 0 0 0 19 47 31 8 0 70 0 0 0 14 19 18 38 128 8 1 2 11 15 11 44 21 2 8 54 100 125 47 13 0 0 10 52 51 115 40 0 104 1 0 0 36 18 3 14 128 44 11 11 21 12 3 23 18 12 24 128 128 31 4 4 0 0 23 107 61 10 0 0 88 33 6 0 10 25 21 26 63 20 10 2 5 26 32 71 5 2 3 13 128 44 9 4 0 0 0 4 100 10 0 0 1 0
0.099525645 -0.105 0.0064065247 44 0 0 0 0 0 0 16 100 14 7 23 24 1 0 32 122 11 4 16 11 3 20 44 12 3 1 2 4 17 60 11 64 0 0 0 0 4 17 101 75 14 1 24 90 77 42 75 126 61 5 7 19 6 0 9 24 22 5 1 1 0 3 13 126 44 11 18 6 5 12 74 96 33 20 126 126 73 29 49 126 6 0 11 34 6 0 33 37 3 1 2 0 0 7 27 120 20 6 20 23 0 0 31 70 14 12 116 84 0 0 26 126 3 1 7 2 0 0 61 20 8 10 8 5 0 1 6 1 0
0.078970954 -0.105 0.0068350523 89 10 1 2 15 4 1 12 68 6 1 8 113 28 3 8 125 13 0 0 4 1 1 31 14 5 3 5 18 10 3 16 125 9 0 1 8 17 15 76 79 6 1 9 125 125 29 43 125 10 0 0 14 10 1 32 23 5 3 9 62 17 3 14 125 82 12 13 6 4 2 20 81 48 23 125 125 35 5 11 125 11 3 11 23 2 0 8 15 4 8 31 49 1 0 1 62 15 2 3 4 2 3 18 51 15 5 26 88 44 9 11 116 57 42 4 9 6 0 0 3 8 64 53 25 0 1 0 1 0
0.10737192 -0.105 0.020148048 31 0 0 4 73 17 12 59 22 0 0 13 131 43 21 45 34 0 0 1 32 26 77 102 3 0 0 0 18 64 93 15 83 4 0 8 87 14 3 25 76 2 0 7 131 23 3 16 131 10 0 1 68 18 11 57 34 0 0 1 68 50 39 37 98 25 0 14 90 0 0 2 81 13 1 16 131 4 0 5 131 34 1 1 31 11 7 28 21 6 2 2 8 29 44 23 65 3 0 5 56 14 2 23 33 2 0 8 96 34 24 51 95 9 0 0 8 7 21 131 12 2 1 4 11 10 8 16 1 0
0.10737192 -0.105 0.020148048 12 10 8 16 11 2 1 4 8 7 22 131 95 9 0 0 95 34 26 53 32 2 0 9 54 14 2 25 65 3 0 6 9 31 44 23 21 6 2 2 30 11 6 30 131 32 1 1 131 4 0 6 82 12 1 19 88 0 0 2 100 24 0 15 70 51 39 37 33 0 0 2 69 17 11 60 131 9 0 1 131 20 3 17 75 2 0 8 87 13 3 25 82 4 0 8 17 65 93 15 3 0 0 0 33 25 76 101 32 0 0 1 131 42 21 46 22 0 0 15 75 17 12 58 30 0 0 4 1 0
0.049750119 -0.105 0.0063583832 0 0 1 1 70 85 32 0 39 8 5 2 46 63 9 1 125 92 18 36 31 6 1 23 11 13 11 85 124 8 1 3 0 0 0 1 50 104 24 0 31 1 0 1 125 125 5 5 125 30 7 26 63 12 1 26 8 3 4 47 120 1 0 1 5 1 2 12 60 31 1 5 27 0 0 44 125 28 1 3 125 19 6 33 72 7 0 20 1 1 2 37 72 2 0 0 11 7 6 23 65 5 0 4 33 0 0 25 125 31 1 12 98 0 0 4 83 29 4 55 0 0 0 3 79 11 0 0 1 0
0.049750119 -0.105 0.0063583832 81 13 0 0 0 0 0 3 82 30 4 54 101 0 0 3 125 32 1 11 32 0 0 25 64 5 0 4 12 7 5 22 73 2 0 0 1 1 2 36 72 8 0 20 125 20 6 32 125 30 1 3 26 0 0 42 59 32 1 4 5 1 2 11 121 2 0 1 8 3 3 45 63 12 1 24 125 31 7 25 123 125 5 5 32 1 0 1 49 105 26 0 0 0 0 1 123 8 0 3 9 12 11 83 33 6 1 22 125 95 18 37 44 62 9 1 41 9 6 2 68 85 32 0 0 0 1 1 1 0
0.092079036 -0.105 0.0084705204 11 0 5 13 64 68 12 1 128 7 1 2 12 5 0 37 66 25 15 3 0 0 5 22 2 15 22 7 1 0 1 1 25 2 45 63 96 3 1 4 128 23 5 6 15 0 1 27 59 19 38 15 5 4 7 11 2 15 42 28 7 1 0 0 25 11 36 19 2 6 125 97 103 57 35 11 12 62 121 51 12 38 128 27 5 20 18 2 0 2 128 67 3 8 29 19 28 99 78 5 0 3 33 41 5 24 128 84 24 50 40 12 0 24 116 17 6 20 26 3 30 61 57 6 0 11 46 49 1 0
0.062390842 -0.105 0.0087669063 13 5 68 80 25 2 0 0 128 30 7 16 8 0 0 9 54 21 11 16 0 0 0 5 1 3 13 38 4 0 1 2 52 8 26 52 12 0 2 2 128 25 8 3 0 0 0 18 51 7 39 56 14 0 0 6 2 18 54 36 3 0 1 2 30 5 5 5 1 29 128 43 125 83 52 6 2 35 67 11 10 20 128 89 2 3 44 21 0 10 128 24 0 26 67 9 10 49 123 34 7 36 87 28 1 6 106 44 11 54 56 1 28 64 72 6 0 6 68 57 9 26 71 36 13 64 97 26 1 0
0.088966765 -0.105 0.017584907 0 4 61 13 1 29 46 0 9 1 25 24 1 14 20 29 81 2 4 1 0 4 39 130 59 3 7 12 6 15 28 69 0 5 51 13 9 54 56 0 94 15 21 26 22 47 29 42 130 109 19 12 15 24 64 130 8 15 21 37 75 99 46 22 0 1 26 16 39 120 11 0 128 10 22 23 26 25 0 41 130 101 23 8 2 0 1 50 6 35 28 26 15 8 4 1 1 4 24 53 74 19 2 0 130 0 0 17 39 6 0 66 108 10 5 0 0 0 7 63 3 15 15 9 1 0 3 2 1 0
0.13654953 -0.105 0.0076875994 131 8 1 7 47 2 0 12 86 17 5 16 88 7 3 21 45 20 43 60 32 17 2 13 84 20 16 14 3 1 0 22 62 65 59 23 15 0 0 2 131 22 33 30 40 13 5 56 71 1 0 7 131 68 7 43 122 1 0 1 11 6 0 58 22 18 32 9 11 4 0 0 131 60 12 9 20 2 0 5 101 19 2 33 131 15 0 8 123 22 6 9 8 2 0 15 21 1 0 2 34 4 0 3 131 16 0 1 17 2 0 34 82 4 0 9 131 15 1 20 72 4 5 26 22 6 0 19 1 0
0.15769835 -0.105 0.083295792 0 1 41 4 0 0 0 0 1 4 48 3 0 0 0 0 5 5 23 2 0 0 19 15 0 3 13 0 0 8 43 5 0 13 89 9 0 1 4 0 34 33 86 9 0 0 2 3 137 26 9 0 0 0 60 118 19 0 0 2 38 85 137 45 0 3 10 2 1 49 69 12 48 10 11 2 0 6 61 26 137 128 15 1 0 0 9 39 41 54 51 110 75 20 11 12 0 0 0 0 1 93 137 17 4 0 0 0 0 15 137 10 33 51 7 0 0 1 137 71 6 23 25 46 9 51 95 26 1 0
0.05398779 -0.105 0.028967308 5 16 120 120 15 0 0 1 7 4 120 41 1 11 18 18 0 0 120 21 1 29 17 1 4 46 104 16 1 6 5 0 28 3 19 15 38 0 5 18 120 5 3 1 4 46 49 91 13 1 1 2 33 120 86 20 3 1 4 1 47 68 43 6 61 2 0 1 46 6 30 65 120 39 1 8 18 15 26 39 43 23 3 47 120 43 8 6 14 4 0 4 120 25 4 3 110 22 2 3 46 2 1 5 100 28 4 9 29 6 2 13 46 13 3 25 112 9 1 5 26 3 0 1 100 41 0 1 1 0
0.065415666 -0.105 0.0371597 7 1 2 2 1 4 105 68 42 1 0 4 16 47 163 106 164 3 0 1 8 19 21 37 132 30 15 8 6 2 1 11 27 11 7 3 7 27 48 44 59 33 67 103 46 29 25 43 164 14 7 33 21 11 3 16 70 29 30 7 0 1 3 5 6 2 4 13 15 13 5 4 50 4 17 30 64 53 7 7 164 4 2 6 11 5 2 52 49 0 0 0 0 4 39 27 12 5 5 6 7 3 1 2 48 4 7 27 81 10 1 4 164 3 0 2 14 1 0 29 50 0 0 0 0 3 15 13 1 0
0.051925667 -0.105 0.052164514 7 0 2 33 39 15 4 2 135 1 0 3 4 5 17 104 61 1 0 0 11 68 100 68 0 0 0 0 37 135 51 0 21 2 5 19 56 15 2 1 135 38 6 1 0 1 0 26 107 26 35 35 28 9 0 16 0 0 4 121 101 25 0 0 12 3 0 2 31 60 71 16 98 131 48 2 13 45 21 4 17 90 135 56 3 0 0 0 0 0 61 135 10 0 0 1 14 32 40 39 16 20 24 15 0 8 24 73 43 30 8 2 0 10 66 12 0 0 12 4 0 0 25 28 0 0 6 15 1 0
0.069927298 -0.105 0.11583187 27 5 0 0 0 0 0 1 173 1 0 0 0 0 0 30 173 3 0 0 0 0 0 13 64 9 2 1 1 0 0 5 51 4 1 0 0 0 0 4 173 11 0 0 0 0 0 39 173 37 13 0 0 0 0 10 19 46 41 1 0 0 0 0 64 1 0 0 0 0 0 4 173 69 3 0 0 0 0 8 76 111 101 0 0 0 0 0 0 43 125 0 0 0 0 0 56 1 0 0 0 0 0 4 173 10 0 0 0 0 0 17 54 28 17 0 0 0 0 1 7 18 25 0 0 0 0 2 1 0
0.16415769 -0.105 0.021805733 20 32 20 13 13 10 4 2 36 18 25 138 129 9 0 3 138 17 4 19 23 1 2 24 33 33 14 0 0 3 7 10 76 14 5 20 28 17 3 13 52 3 0 44 138 34 0 6 138 19 0 3 21 6 7 44 25 11 5 15 15 13 17 11 63 17 6 49 38 6 2 12 53 5 5 98 138 6 0 8 138 18 0 3 14 4 1 39 33 2 0 14 70 28 2 6 56 2 0 17 117 13 2 17 45 24 7 55 112 2 0 0 138 100 2 2 0 0 0 8 27 20 3 24 67 10 1 2 1 0
0.043202978 -0.105 0.023586586 7 7 7 81 65 7 0 0 118 49 9 31 20 3 0 2 47 26 25 51 50 16 0 6 56 18 6 4 55 16 0 7 22 2 1 10 124 48 0 2 124 16 1 3 42 21 3 33 76 10 0 2 99 81 5 26 79 19 0 3 70 8 0 10 16 3 0 0 124 46 1 6 124 113 2 3 58 11 0 5 58 53 5 10 124 24 1 7 80 13 0 1 41 30 8 25 4 0 0 0 124 57 1 5 74 81 0 1 74 19 0 0 95 56 1 1 43 10 0 3 89 11 1 3 36 14 3 17 1 0
0.13856123 -0.105 0.079209127 33 12 0 3 12 11 10 14 150 63 0 0 0 0 9 12 150 102 0 0 0 0 0 0 9 6 5 0 0 0 0 0 6 0 0 0 3 20 83 41 121 12 0 0 6 11 57 55 150 48 0 0 0 0 4 41 28 4 1 0 0 0 1 2 0 0 0 1 1 3 150 85 18 0 0 0 3 3 150 150 119 2 0 0 0 0 69 150 15 1 2 0 0 0 0 4 0 0 0 0 0 3 121 43 0 0 0 0 1 1 81 30 0 0 0 0 0 2 21 13 0 0 0 0 0 1 2 0 1 0
0.11952267 -0.105 0.027349213 0 0 23 21 31 65 39 1 70 52 26 35 14 16 14 3 137 137 65 30 7 3 2 12 13 13 26 39 26 10 15 13 0 13 71 17 32 137 5 0 80 7 21 25 35 108 10 4 137 41 0 0 1 1 1 23 37 15 0 1 5 6 15 24 0 14 137 19 12 71 19 0 81 15 70 37 27 22 0 6 137 31 0 0 1 0 0 38 56 23 9 15 4 2 2 11 0 8 50 47 42 75 20 0 77 12 3 13 24 12 0 38 137 27 5 1 1 14 42 102 17 9 58 37 10 37 16 6 1 0
0.081987999 -0.105 0.081161425 41 35 43 80 19 11 24 17 124 114 4 3 6 22 25 57 9 13 0 2 99 124 12 3 3 0 0 0 65 76 4 1 37 34 27 36 22 24 18 24 124 124 10 6 2 0 3 40 50 24 13 124 124 22 0 3 0 0 1 78 122 26 1 0 10 13 5 5 6 35 27 10 106 124 46 12 0 1 13 23 20 41 61 124 33 12 1 3 0 0 2 96 55 4 0 0 0 17 40 0 0 20 24 1 12 19 50 0 0 3 25 20 18 29 30 14 33 6 1 8 0 0 1 22 65 12 0 0 1 0
0.18086322 -0.105 0.016630508 11 1 2 2 3 1 1 10 18 0 0 0 1 40 47 38 2 0 0 0 0 32 36 39 21 0 0 0 0 4 33 52 55 1 0 1 14 6 8 27 134 2 0 0 3 73 67 84 32 0 0 0 29 134 125 71 39 0 0 0 1 62 103 90 42 0 0 0 18 18 16 27 134 29 0 0 14 9 11 28 103 15 1 0 134 74 16 11 121 27 2 5 17 30 29 22 19 1 0 0 35 19 7 6 134 44 0 2 6 1 1 7 77 21 1 11 134 20 1 2 127 26 2 6 47 7 2 6 1 0
0.11450505 -0.105 0.025369378 116 12 0 9 61 2 0 5 72 14 3 25 90 2 0 5 116 31 0 10 44 0 0 15 40 14 2 30 24 8 2 8 116 27 9 27 20 0 0 25 77 18 13 116 90 2 1 20 116 25 6 41 24 0 0 32 41 19 43 103 13 5 0 5 33 55 28 8 0 3 14 4 49 32 51 94 15 1 4 5 116 45 30 78 6 0 1 11 23 22 27 116 7 0 1 2 3 1 1 0 16 109 116 50 6 2 2 0 2 30 116 25 10 15 18 14 1 13 116 11 6 6 5 14 2 4 116 29 1 0
0.094706416 -0.105 0.037052222 10 2 2 1 0 6 83 59 48 1 1 2 25 68 129 79 165 0 0 0 12 22 11 21 50 0 0 0 0 0 11 13 53 26 6 2 12 11 28 35 81 53 47 116 90 42 25 41 165 6 2 33 40 13 1 18 102 0 0 0 0 0 9 32 21 8 2 5 20 7 3 8 62 11 19 45 84 38 4 9 165 4 1 10 17 4 0 19 121 13 2 0 0 0 0 7 14 5 2 7 10 4 6 4 56 7 6 42 75 4 0 3 165 3 0 4 15 0 0 11 63 23 2 0 0 0 0 2 1 0
0.16422571 -0.105 0.078667656 6 6 10 5 3 1 2 2 60 36 25 19 16 3 1 0 128 88 3 0 0 0 0 0 14 36 15 1 0 0 0 0 4 0 0 0 2 25 128 36 64 8 0 0 24 123 58 10 128 30 0 0 1 6 6 36 27 7 1 0 0 0 19 14 62 18 22 8 9 26 89 49 18 14 18 69 110 128 47 21 128 96 12 12 7 13 11 67 18 19 32 2 0 0 20 15 22 41 128 46 3 0 0 0 12 20 110 128 39 0 0 0 128 96 10 19 4 0 0 0 43 18 11 0 0 0 1 2 1 0
0.19611201 -0.105 0.12365189 103 31 1 3 39 10 0 9 61 18 1 10 115 27 1 5 123 30 0 1 15 12 4 32 17 4 0 3 123 66 5 13 123 13 0 0 66 21 0 14 91 10 1 2 123 45 0 13 123 47 1 2 31 7 0 23 34 11 2 12 123 46 0 9 82 43 9 1 98 20 0 4 56 44 34 56 105 8 0 4 123 92 61 14 24 2 0 7 16 21 91 77 73 13 0 2 2 16 5 1 105 17 3 3 1 18 23 24 3 0 13 10 3 29 32 5 1 0 25 10 0 9 46 10 0 2 17 2 1 0
0.1600993 -0.105 0.078673087 33 1 0 0 3 32 112 49 7 0 0 4 75 131 57 11 131 0 0 0 12 21 9 100 44 1 0 0 0 1 13 24 49 65 131 24 6 4 7 10 20 25 86 131 86 41 9 8 131 69 13 15 6 9 10 76 21 19 21 0 0 2 25 17 11 50 131 19 7 2 0 1 86 28 86 67 0 0 0 8 131 26 5 4 0 0 0 36 22 11 16 0 0 0 3 4 27 4 1 8 11 4 1 7 113 2 0 0 0 0 2 27 131 0 0 0 0 0 0 53 14 0 0 0 0 3 18 16 1 0
0.05458555 -0.105 0.049942147 0 0 0 0 10 99 117 2 0 7 2 1 27 101 15 0 0 45 9 1 3 38 13 0 0 11 10 7 17 20 13 2 1 3 12 21 40 114 49 12 12 5 4 45 122 122 1 1 86 16 4 3 19 37 89 69 6 3 3 4 30 84 107 20 0 2 75 122 19 6 1 0 26 4 33 122 79 13 1 2 122 119 28 15 12 5 11 27 14 35 39 52 73 34 18 21 2 0 38 122 1 3 9 11 15 3 6 22 7 13 12 27 32 20 7 12 1 2 19 103 2 8 16 81 7 5 18 30 1 0
0.05458555 -0.105 0.049942147 8 3 20 20 3 11 35 64 1 2 42 84 25 33 14 17 8 10 22 50 20 2 4 7 4 10 18 12 1 0 30 44 88 57 27 22 13 26 26 56 12 11 20 49 123 102 23 19 49 5 1 7 36 3 62 123 8 2 1 1 0 2 123 123 19 89 94 14 3 6 5 3 29 46 75 72 63 11 3 5 123 119 1 3 10 3 12 83 48 64 29 7 2 7 35 43 22 24 3 0 1 25 8 6 8 47 4 0 5 43 2 0 68 123 13 0 0 3 1 1 17 113 114 4 0 0 0 0 1 0
0.17701785 -0.105 0.090007246 0 0 8 65 94 38 7 1 48 1 0 5 23 33 24 36 83 4 0 0 70 63 45 57 0 0 2 9 61 37 7 1 7 0 0 2 118 75 7 8 66 6 0 0 27 59 15 9 118 21 0 0 101 53 1 7 2 0 0 0 112 90 14 1 16 0 0 0 118 75 1 6 31 0 0 0 18 45 50 38 118 5 0 0 41 34 42 58 5 0 0 0 58 91 114 7 22 4 0 0 118 58 0 10 51 34 1 0 5 4 68 74 15 8 2 0 1 3 118 60 0 0 3 12 19 19 104 19 1 0
0.085106969 -0.105 0.030469727 57 42 17 1 0 0 0 36 58 49 57 17 0 0 1 58 42 66 44 29 0 0 0 15 22 23 7 24 9 5 6 12 66 22 10 4 0 7 1 86 50 18 36 123 8 0 4 92 123 24 20 64 3 0 0 86 44 8 3 123 26 1 2 34 26 30 29 7 2 117 33 5 48 30 60 64 0 18 3 2 123 71 55 71 1 0 0 9 13 5 20 123 12 0 0 37 2 0 1 8 22 123 34 5 5 9 1 0 5 123 108 8 9 31 38 14 2 46 27 25 30 1 11 18 0 0 0 123 1 0
0.18901616 -0.105 0.12366866 108 16 1 14 54 14 3 11 33 4 0 15 112 23 0 0 95 21 0 12 65 8 0 4 66 9 0 11 82 10 0 0 94 76 13 35 38 3 0 0 36 6 2 40 112 30 0 3 112 26 2 16 67 20 3 25 70 7 0 16 112 20 0 1 75 53 5 3 6 7 12 47 36 7 2 3 112 75 13 27 99 13 1 7 70 50 20 74 58 5 0 8 112 43 3 1 94 28 12 1 3 2 9 38 28 18 11 13 112 24 8 11 87 62 21 27 72 15 4 15 37 4 6 26 112 14 1 0 1 0
0.18901616 -0.105 0.12366866 75 2 0 27 96 0 0 26 106 14 4 28 57 27 22 62 109 3 2 22 65 24 6 47 30 2 13 30 37 25 7 22 98 7 0 21 68 1 1 37 89 32 23 88 60 8 2 23 112 27 16 49 34 3 1 17 22 9 41 75 56 25 3 3 112 7 0 15 39 1 0 40 55 8 1 58 112 8 1 28 112 16 0 8 21 6 6 93 11 2 1 9 112 48 12 24 76 1 0 6 31 2 0 58 52 0 0 25 102 2 0 25 112 4 2 6 15 1 3 78 10 1 2 39 112 8 4 14 1 0
0.17970887 -0.105 0.1216008 0 0 0 0 137 30 0 0 0 0 0 0 12 7 22 14 55 32 1 0 0 7 21 9 48 77 37 10 14 2 7 13 7 0 0 0 137 39 0 6 73 2 0 0 19 23 51 90 28 8 0 0 39 98 58 38 65 25 12 2 5 12 62 83 14 0 0 0 137 43 0 1 137 42 5 4 29 10 4 18 60 20 7 23 109 50 8 20 137 9 2 8 17 7 4 51 5 1 0 0 137 41 0 0 137 24 1 1 32 8 9 33 64 14 3 10 71 72 23 27 106 21 5 8 17 13 10 8 1 0
0.08065778 -0.105 0.032578971 16 0 0 1 153 8 0 6 99 0 0 0 9 47 31 65 40 0 0 0 22 129 24 24 59 1 0 3 62 20 8 23 35 0 0 11 153 2 0 0 153 6 0 0 19 21 3 12 47 1 0 0 108 116 26 17 42 0 0 1 25 36 38 39 33 0 0 12 153 1 0 1 153 16 2 2 7 2 0 6 40 11 6 9 21 39 33 12 8 3 0 1 19 21 37 17 22 0 0 2 153 5 3 10 153 10 6 1 2 1 4 22 20 27 27 4 2 1 1 4 3 8 8 13 23 1 0 3 1 0
0.20011006 -0.105 0.072436534 9 71 14 0 1 8 4 1 51 142 9 0 0 0 0 0 18 96 5 5 10 7 0 0 0 0 0 5 20 16 0 0 0 7 6 6 42 142 9 0 53 142 50 17 19 12 0 1 142 142 8 3 5 3 0 5 8 2 0 5 22 11 0 1 0 0 0 5 113 142 0 0 98 15 7 14 63 51 5 40 142 19 0 0 8 7 3 106 13 0 0 0 23 21 7 6 0 0 0 3 8 0 0 0 111 34 7 7 8 1 0 22 142 74 23 2 10 5 2 74 1 10 9 2 18 10 2 2 1 0
0.14849482 -0.105 0.083539687 0 1 20 30 67 13 0 0 39 43 34 25 32 10 1 8 106 66 3 0 0 0 0 10 33 19 1 2 1 0 0 0 0 0 0 0 120 77 5 0 32 35 5 6 67 34 5 9 111 120 5 1 1 1 0 12 58 40 0 1 3 0 0 0 0 0 0 14 115 120 102 0 10 7 2 16 103 120 41 5 117 85 3 3 12 9 3 17 78 55 0 1 1 0 0 0 0 0 8 107 120 91 18 0 0 1 9 75 120 39 5 0 71 46 3 3 32 13 2 20 79 38 0 0 0 0 0 6 1 0
0.14849482 -0.105 0.083539687 0 0 0 124 124 1 0 0 0 2 7 65 53 1 0 0 44 37 26 29 15 1 3 38 89 38 2 0 0 0 0 25 0 0 7 73 124 124 7 0 12 5 3 57 97 31 4 6 117 19 2 10 9 1 6 97 67 2 0 0 0 0 0 69 0 3 105 124 93 45 1 0 32 7 8 75 109 19 6 34 124 10 0 1 1 1 4 113 60 1 0 3 0 0 0 38 1 1 13 59 49 1 0 1 51 8 3 29 21 2 10 67 95 2 0 0 0 0 1 75 29 1 2 7 0 0 0 17 1 0
0.029533356 -0.105 0.024526741 27 20 18 23 44 1 0 0 126 40 1 1 4 0 0 10 50 22 6 0 0 1 3 22 16 10 4 6 10 21 13 12 56 16 0 2 44 1 0 1 126 30 1 0 9 1 6 51 57 15 12 5 2 17 37 39 18 7 17 5 15 12 5 15 66 10 0 0 35 7 1 13 126 76 8 1 10 9 47 126 29 35 93 30 8 67 72 26 1 9 126 18 2 14 32 1 86 17 0 0 4 6 2 22 126 126 44 9 6 17 70 126 10 24 61 69 86 126 102 35 5 2 15 10 15 30 66 3 1 0
0.12240324 -0.105 0.0098427273 79 9 0 0 0 1 0 6 137 51 3 0 0 0 1 34 19 28 28 5 0 0 6 29 4 8 28 40 15 5 3 7 85 10 0 0 0 0 0 2 137 50 2 0 0 3 5 38 37 21 22 7 3 20 34 39 6 10 20 18 11 35 75 20 76 12 1 0 0 1 5 2 137 136 29 0 0 0 1 13 24 96 89 11 3 6 6 8 5 31 111 18 6 6 7 5 14 5 1 4 10 77 100 5 45 88 41 0 0 9 56 36 47 79 82 4 2 20 95 137 1 7 85 29 12 100 99 10 1 0
